VERSION .7
FIELDS x y z rgb
SIZE 4 4 4 4
TYPE F F F U
COUNT 1 1 1 1
WIDTH 1387
HEIGHT 1
VIEWPOINT 0 0 0 1 0 0 0
POINTS 1387
DATA ascii
0.025469 -0.428215 -0.041962 56440
0.291007 -0.294222 0.018269 56440
0.432731 0.013618 0.015926 56440
0.314913 0.383282 0.029235 56440
0.031168 0.402196 0.009200 56440
-0.283317 0.290087 -0.020727 56440
-0.365536 -0.003567 -0.036376 56440
-0.255490 -0.240483 0.008015 56440
0.021281 -0.474081 0.020970 56440
0.308357 -0.301868 0.015371 56440
0.463225 -0.017768 -0.024217 56440
0.261278 0.258575 -0.034767 56440
0.044507 0.464624 0.024388 56440
-0.287450 0.246081 0.024843 56440
-0.382831 -0.001793 0.029767 56440
-0.277087 -0.238278 -0.034408 56440
-0.048253 -0.488895 0.047028 56440
0.351838 -0.341475 -0.014246 56440
0.357175 0.001401 0.040443 56440
0.352509 0.312715 0.044983 56440
-0.012663 0.408604 0.012426 56440
-0.297049 0.330314 0.048661 56440
-0.397983 0.007714 0.022259 56440
-0.296044 -0.344570 0.029459 56440
-0.007242 -0.470832 -0.014519 56440
0.317087 -0.372471 0.025094 56440
0.349576 0.028227 -0.009801 56440
0.330123 0.271651 0.020409 56440
0.037753 0.381083 -0.033500 56440
-0.278866 0.292797 0.002309 56440
-0.442229 -0.018391 0.029063 56440
-0.257709 -0.242492 -0.016918 56440
0.020076 -0.417964 0.029968 56440
0.367770 -0.310987 -0.020787 56440
0.467786 0.026557 -0.031564 56440
0.298191 0.344921 0.027948 56440
-0.011833 0.367963 0.039984 56440
-0.240736 0.277132 -0.038236 56440
-0.481293 0.009051 0.030452 56440
-0.287248 -0.319683 0.000661 56440
-0.046101 -0.470207 0.040547 56440
0.344902 -0.287829 0.020764 56440
0.401141 -0.027880 0.044784 56440
0.306083 0.274502 -0.025250 56440
-0.002307 0.444259 0.037486 56440
-0.339074 0.279441 0.002242 56440
-0.459780 -0.000622 0.042100 56440
-0.244524 -0.289991 -0.002711 56440
-0.035412 -0.442913 -0.039036 56440
0.253959 -0.293912 -0.021694 56440
0.372310 -0.028585 0.043760 56440
0.298418 0.348377 -0.047864 56440
0.033305 0.387700 0.038415 56440
-0.260633 0.268990 -0.033934 56440
-0.458729 -0.037535 0.012297 56440
-0.295896 -0.320597 -0.036853 56440
-0.025126 -0.363932 -0.023478 56440
0.239437 -0.260758 0.035449 56440
0.423281 0.041122 -0.002201 56440
0.323063 0.335927 0.039908 56440
-0.016153 0.398073 0.041823 56440
-0.271086 0.312414 0.038111 56440
-0.351638 -0.018724 -0.001617 56440
-0.309211 -0.261149 -0.047251 56440
0.001730 -0.439341 0.015551 56440
0.308607 -0.364748 0.037481 56440
0.394649 0.027213 -0.016387 56440
0.347540 0.285538 -0.044998 56440
-0.017629 0.365607 0.013023 56440
-0.362562 0.311112 -0.032722 56440
-0.473862 -0.029729 0.026313 56440
-0.349553 -0.335130 -0.004313 56440
0.015556 -0.488264 -0.042583 56440
0.282253 -0.338059 -0.012505 56440
0.397356 0.010747 -0.023932 56440
0.256141 0.297906 -0.040002 56440
0.025242 0.452261 -0.042638 56440
-0.325970 0.302205 0.043937 56440
-0.410261 -0.023236 0.036597 56440
-0.275099 -0.230081 0.048338 56440
-0.024633 -0.349496 0.017753 56440
0.267819 -0.256032 -0.025094 56440
0.451734 -0.042690 0.042646 56440
0.298608 0.361854 0.013041 56440
-0.009900 0.372972 -0.040616 56440
-0.306770 0.360992 -0.014592 56440
-0.354204 -0.030792 0.023843 56440
-0.241113 -0.285140 0.030085 56440
0.022013 -0.377314 0.018532 56440
0.328070 -0.311169 0.035978 56440
0.351502 0.025248 0.005618 56440
0.272917 0.233090 0.010323 56440
0.010264 0.443220 0.030368 56440
-0.292788 0.329764 0.000091 56440
-0.388166 0.021126 -0.008630 56440
-0.292670 -0.309313 0.029869 56440
-0.026156 -0.442382 0.025729 56440
0.356144 -0.308580 0.015440 56440
0.453096 0.027159 -0.031534 56440
0.326031 0.324061 -0.016191 56440
-0.002406 0.483069 0.039153 56440
-0.266409 0.300224 -0.000955 56440
-0.425345 -0.022959 -0.032103 56440
-0.302575 -0.369948 -0.001446 56440
0.038206 -0.421732 -0.043161 56440
0.378093 -0.318543 0.008151 56440
0.438685 0.003457 -0.033708 56440
0.279524 0.331750 -0.030847 56440
0.004542 0.397879 -0.035678 56440
-0.315736 0.367853 -0.028404 56440
-0.368419 0.027012 -0.034896 56440
-0.293337 -0.282135 -0.005679 56440
-0.003876 -0.482963 -0.030025 56440
0.364884 -0.330188 0.002048 56440
0.453479 -0.008061 -0.013199 56440
0.309900 0.322268 -0.004520 56440
0.037591 0.427962 0.012158 56440
-0.323913 0.328386 0.014820 56440
-0.407676 -0.010427 -0.002502 56440
-0.294650 -0.291450 -0.025796 56440
0.029174 -0.361935 -0.024043 56440
0.267818 -0.307502 0.040401 56440
0.374003 0.021765 -0.030255 56440
0.336366 0.290482 -0.015242 56440
0.019531 0.421900 -0.033764 56440
-0.331182 0.306007 0.031214 56440
-0.420608 0.021722 0.040805 56440
-0.266346 -0.315831 -0.037691 56440
-0.010300 -0.381998 -0.010538 56440
0.287770 -0.263229 0.035030 56440
0.468457 -0.012764 0.032512 56440
0.269394 0.236687 0.011663 56440
0.030826 0.402279 -0.003843 56440
-0.288197 0.299762 -0.048791 56440
-0.398352 -0.022849 -0.018702 56440
-0.268787 -0.264438 0.023323 56440
0.011845 -0.350105 0.015323 56440
0.282185 -0.298803 -0.004174 56440
0.426969 -0.011501 -0.046292 56440
0.277666 0.258780 0.045561 56440
0.028194 0.395362 -0.016393 56440
-0.344594 0.299956 -0.005664 56440
-0.497332 -0.046035 0.017037 56440
-0.255126 -0.269625 0.004908 56440
-0.028441 -0.392613 -0.006202 56440
0.286851 -0.292353 0.027437 56440
0.378008 -0.007492 0.028807 56440
0.293265 0.345779 -0.034519 56440
-0.010667 0.497217 -0.031924 56440
-0.318670 0.353020 0.022208 56440
-0.433160 0.004020 0.034402 56440
-0.269398 -0.254852 0.045878 56440
-0.029120 -0.399002 -0.004002 56440
0.302447 -0.326494 -0.014527 56440
0.429521 -0.028319 -0.042774 56440
0.290995 0.336336 0.004545 56440
-0.023559 0.451465 0.002428 56440
-0.295790 0.291046 -0.042085 56440
-0.370108 0.006252 0.008039 56440
-0.284864 -0.260886 0.029081 56440
0.000508 -0.428794 0.000848 56440
0.259699 -0.278837 0.019147 56440
0.466590 0.021161 0.012848 56440
0.246085 0.297628 0.045456 56440
0.029001 0.417164 0.048800 56440
-0.237300 0.280226 0.046310 56440
-0.430760 -0.031677 0.004988 56440
-0.251690 -0.291019 0.015773 56440
-0.021624 -0.477306 -0.039858 56440
0.274395 -0.268755 -0.018776 56440
0.379805 0.012249 -0.000967 56440
0.310002 0.377345 0.005960 56440
-0.029749 0.435969 -0.011482 56440
-0.373964 0.316174 -0.045898 56440
-0.368884 0.015784 0.024250 56440
-0.340191 -0.304356 0.006901 56440
0.024916 -0.361523 0.025890 56440
0.249162 -0.261304 -0.026206 56440
0.415738 -0.024993 0.012095 56440
0.232702 0.278169 -0.014480 56440
0.017430 0.417513 0.038187 56440
-0.286864 0.308476 -0.041565 56440
-0.408236 0.017767 -0.020824 56440
-0.319388 -0.331547 -0.004225 56440
-0.032793 -0.417458 0.047346 56440
0.250306 -0.285345 -0.021877 56440
0.384374 -0.011435 -0.010812 56440
0.283989 0.290954 -0.035486 56440
-0.028818 0.451885 -0.044185 56440
-0.369293 0.325137 0.047307 56440
-0.421567 -0.041379 0.031890 56440
-0.350197 -0.335454 0.011029 56440
-0.033696 -0.457991 0.007710 56440
0.327846 -0.319819 0.017267 56440
0.485726 -0.038652 -0.034647 56440
0.259465 0.298779 0.035115 56440
0.031943 0.489659 -0.019719 56440
-0.359017 0.338074 -0.043570 56440
-0.397227 -0.029465 -0.001955 56440
-0.270621 -0.299825 0.030872 56440
-0.046795 -0.470581 0.004973 56440
0.331806 -0.273838 0.047880 56440
0.446582 0.012811 0.035974 56440
0.287908 0.288884 0.049730 56440
-0.031538 0.434905 0.014895 56440
-0.297667 0.318536 -0.008822 56440
-0.418612 0.011046 -0.047880 56440
-0.339863 -0.333483 0.006664 56440
-0.030571 -0.472133 0.018261 56440
0.297449 -0.313828 0.045299 56440
0.484862 -0.014469 0.049286 56440
0.348903 0.326732 -0.016662 56440
0.027668 0.380691 0.007525 56440
-0.248756 0.284001 0.028670 56440
-0.414446 0.022835 0.014686 56440
-0.337018 -0.280168 0.010225 56440
-0.029298 -0.443204 0.027725 56440
0.237465 -0.258992 0.009709 56440
0.486845 0.009880 -0.046152 56440
0.328446 0.276805 -0.033554 56440
0.031647 0.434845 -0.011017 56440
-0.332212 0.341527 0.022360 56440
-0.358355 -0.017366 -0.043960 56440
-0.345997 -0.307767 -0.002738 56440
0.042537 -0.433179 0.040754 56440
0.257042 -0.308685 -0.019121 56440
0.442048 -0.043295 -0.017013 56440
0.321047 0.350938 -0.029133 56440
0.037718 0.477334 -0.001118 56440
-0.367802 0.333268 0.023589 56440
-0.433819 -0.025323 0.038520 56440
-0.233924 -0.282337 -0.039654 56440
-0.003167 -0.397361 0.007055 56440
0.318958 -0.378704 -0.014755 56440
0.429065 0.018942 -0.044012 56440
0.344092 0.347391 0.018008 56440
0.017219 0.456208 -0.018717 56440
-0.355685 0.296785 0.008210 56440
-0.358243 -0.001096 -0.036902 56440
-0.333421 -0.349733 0.033585 56440
-0.014629 -0.404824 -0.017360 56440
0.309322 -0.351649 -0.037050 56440
0.443420 -0.025487 0.014766 56440
0.323271 0.365010 0.047610 56440
-0.015047 0.453675 -0.013388 56440
-0.266952 0.324693 -0.042766 56440
-0.427232 0.031882 -0.008637 56440
-0.264039 -0.282530 0.012476 56440
0.005399 -0.480015 0.012814 56440
0.319578 -0.326942 -0.031743 56440
0.373798 -0.015124 -0.033012 56440
0.302067 0.366505 -0.012747 56440
0.031741 0.445483 0.044612 56440
-0.333668 0.328993 0.037294 56440
-0.351533 -0.014256 -0.004001 56440
-0.245276 -0.268944 0.027398 56440
-0.018676 -0.434871 -0.029310 56440
0.248336 -0.296647 -0.019243 56440
0.357140 -0.009905 -0.032062 56440
0.347002 0.311664 0.012073 56440
-0.042049 0.432541 0.044678 56440
-0.372426 0.319665 0.002557 56440
-0.352333 0.025617 -0.036224 56440
-0.283793 -0.243209 -0.038512 56440
0.008631 -0.422891 0.042509 56440
0.371017 -0.333157 -0.010758 56440
0.423603 0.009596 0.031812 56440
0.280833 0.312379 -0.030663 56440
0.045327 0.490956 -0.035803 56440
-0.323792 0.374801 0.042127 56440
-0.419809 0.010014 -0.007438 56440
-0.310920 -0.322407 0.017325 56440
-0.021410 -0.457810 0.021941 56440
0.295533 -0.313153 0.012163 56440
0.360265 -0.034278 -0.006864 56440
0.365599 0.341012 0.029645 56440
0.004672 0.412831 -0.046490 56440
-0.329261 0.335248 -0.010256 56440
-0.447731 -0.040955 -0.015572 56440
-0.325547 -0.320778 0.041697 56440
-0.005470 -0.372764 0.003687 56440
0.252073 -0.280771 -0.043087 56440
0.469042 0.013083 -0.002160 56440
0.265624 0.298059 0.005671 56440
-0.025623 0.402064 0.043215 56440
-0.231891 0.266184 -0.024212 56440
-0.447108 -0.035464 0.046359 56440
-0.340157 -0.336889 0.005724 56440
-0.025267 -0.371236 0.000840 56440
0.313911 -0.338717 -0.029369 56440
0.425578 -0.025378 0.005109 56440
0.279287 0.231638 0.043159 56440
-0.041446 0.435819 0.020254 56440
-0.344663 0.297339 0.042940 56440
-0.461496 -0.033272 -0.011685 56440
-0.292246 -0.331863 0.006134 56440
-0.023973 -0.455184 0.048435 56440
0.278998 -0.249189 0.008457 56440
0.458094 0.029678 0.043067 56440
0.245126 0.279438 0.045468 56440
0.016530 0.421574 -0.039981 56440
-0.287028 0.259401 -0.008482 56440
-0.353447 0.007326 -0.027882 56440
-0.285214 -0.289066 -0.028533 56440
-0.028750 -0.411840 -0.000801 56440
0.270891 -0.307183 -0.000772 56440
0.446735 0.006001 0.041625 56440
0.374344 0.328538 -0.012560 56440
-0.031962 0.389926 -0.025375 56440
-0.276189 0.254862 0.029142 56440
-0.475777 0.012699 0.022021 56440
-0.362160 -0.302090 -0.015279 56440
-0.000310 -0.489528 0.015100 56440
0.268248 -0.314661 0.047263 56440
0.476650 -0.020171 -0.032720 56440
0.249877 0.259858 0.019898 56440
0.007028 0.368617 -0.008385 56440
-0.269442 0.254909 0.005578 56440
-0.460171 0.016596 0.041779 56440
-0.298748 -0.356444 0.020311 56440
0.034011 -0.476532 -0.047161 56440
0.237234 -0.285859 -0.004553 56440
0.448794 0.043821 0.024385 56440
0.306908 0.302589 -0.044860 56440
0.006208 0.410034 0.011987 56440
-0.271287 0.321808 -0.006159 56440
-0.370090 0.004743 -0.003490 56440
-0.278069 -0.273227 0.014753 56440
0.010172 -0.416564 0.044213 56440
0.369213 -0.316095 0.010678 56440
0.442743 0.015778 -0.039001 56440
0.337954 0.318975 0.038086 56440
-0.022010 0.392506 -0.038504 56440
-0.309556 0.255341 0.018157 56440
-0.434766 0.031804 -0.017073 56440
-0.291982 -0.251346 0.031290 56440
0.001822 -0.411749 0.010912 56440
0.279573 -0.316066 -0.008297 56440
0.405265 0.035867 0.037675 56440
0.241528 0.289734 -0.005348 56440
0.034970 0.419690 -0.000479 56440
-0.239015 0.266729 -0.016543 56440
-0.449095 -0.039356 -0.008583 56440
-0.282630 -0.288695 -0.042370 56440
0.008674 -0.390046 -0.035357 56440
0.249670 -0.281339 0.025827 56440
0.361109 -0.032409 -0.003233 56440
0.233972 0.262809 0.016805 56440
0.028735 0.388038 0.037762 56440
-0.271242 0.247192 0.043859 56440
-0.450383 0.022965 0.031595 56440
-0.267718 -0.247185 -0.011281 56440
-0.012711 -0.352248 0.027593 56440
0.347113 -0.310460 -0.016769 56440
0.488264 -0.035545 0.000781 56440
0.355570 0.315953 0.012146 56440
-0.022406 0.366024 0.035923 56440
-0.319237 0.301852 -0.034461 56440
-0.486573 -0.003498 -0.011323 56440
-0.255489 -0.287698 -0.017656 56440
0.022464 -0.443636 0.002128 56440
0.259737 -0.245908 0.001439 56440
0.375913 0.027584 -0.039214 56440
0.343990 0.282940 -0.030519 56440
-0.002860 0.396875 -0.035579 56440
-0.294470 0.291858 -0.000135 56440
-0.354794 0.025315 0.015400 56440
-0.317192 -0.368299 0.048430 56440
-0.039546 -0.452110 0.046134 56440
0.289902 -0.325349 -0.042933 56440
0.395002 -0.013641 0.046367 56440
0.255948 0.308435 0.047883 56440
-0.021379 0.461948 -0.005232 56440
-0.347465 0.346574 -0.019599 56440
-0.480375 0.035336 -0.010669 56440
-0.261153 -0.301163 -0.012350 56440
0.034869 -0.439831 0.024459 56440
0.303764 -0.274032 0.029721 56440
0.422532 0.006891 -0.018570 56440
0.263795 0.247344 0.022543 56440
-0.019189 0.403015 0.040638 56440
-0.320690 0.286913 -0.042253 56440
-0.374563 0.029309 -0.022073 56440
-0.298212 -0.324430 -0.024354 56440
0.000024 -0.413312 -0.007563 56440
0.277670 -0.253667 0.028375 56440
0.375794 -0.006357 0.029031 56440
0.257933 0.243120 -0.026146 56440
-0.027881 0.378176 -0.043524 56440
-0.322404 0.315240 0.031758 56440
-0.486831 0.021961 -0.032406 56440
-0.323941 -0.305035 -0.044915 56440
-0.005209 -0.352703 -0.036745 56440
0.252252 -0.251015 -0.046236 56440
0.419316 -0.016401 -0.031254 56440
0.260374 0.266724 0.025989 56440
0.022596 0.457062 0.003884 56440
-0.335864 0.322347 -0.042015 56440
-0.452836 0.012445 0.033628 56440
-0.319676 -0.322994 0.005826 56440
0.034033 -0.454463 0.002129 56440
0.318126 -0.295815 -0.021738 56440
0.392226 -0.029603 0.044206 56440
0.247882 0.286632 -0.009073 56440
0.014860 0.411512 -0.039777 56440
-0.382560 0.320457 0.039358 56440
-0.452362 -0.039615 0.031784 56440
-0.246256 -0.289578 0.030527 56440
-0.007183 -0.461203 0.024476 56440
0.336272 -0.297036 0.029901 56440
0.468663 -0.038505 -0.046944 56440
0.249008 0.301699 -0.045479 56440
0.044003 0.456870 0.000849 56440
-0.279822 0.292042 -0.028073 56440
-0.466161 0.029676 0.008111 56440
-0.321739 -0.377044 0.007380 56440
0.017790 -0.457880 -0.043604 56440
0.316359 -0.313962 0.043139 56440
0.469378 -0.033924 -0.027710 56440
0.325678 0.337173 -0.027094 56440
-0.017389 0.385864 -0.002632 56440
-0.296145 0.279590 0.000796 56440
-0.441686 0.019650 -0.042919 56440
-0.353419 -0.320152 -0.037976 56440
0.009778 -0.498624 -0.014026 56440
0.275732 -0.264190 0.027438 56440
0.391713 0.025312 0.023467 56440
0.357702 0.297584 -0.001375 56440
-0.033099 0.442644 0.041565 56440
-0.322305 0.301051 -0.017950 56440
-0.460573 -0.038059 0.026326 56440
-0.329786 -0.357915 0.047652 56440
0.004261 -0.389208 0.004164 56440
0.301584 -0.253797 -0.044195 56440
0.355326 0.000238 0.048681 56440
0.288647 0.238321 -0.015347 56440
-0.001154 0.366821 0.005018 56440
-0.324880 0.368126 0.031768 56440
-0.370053 0.028506 -0.031748 56440
-0.343187 -0.322312 -0.048168 56440
0.013990 -0.355208 0.034308 56440
0.312428 -0.363274 0.014858 56440
0.401059 0.011714 -0.002775 56440
0.292984 0.348047 0.048307 56440
-0.041867 0.449003 -0.019542 56440
-0.315430 0.278143 -0.020879 56440
-0.411989 0.016145 0.043035 56440
-0.353878 -0.300297 0.045803 56440
-0.034963 -0.384112 0.015607 56440
0.342376 -0.326599 -0.032741 56440
0.452009 0.042574 -0.021766 56440
0.316385 0.315512 -0.045891 56440
0.019208 0.359822 0.043580 56440
-0.282714 0.318244 0.049158 56440
-0.435043 -0.026560 0.021293 56440
-0.307749 -0.294827 -0.002086 56440
-0.014570 -0.401662 -0.007242 56440
0.304256 -0.282374 -0.003286 56440
0.395182 -0.022340 0.020659 56440
0.247825 0.247810 -0.045615 56440
0.005925 0.351890 0.025038 56440
-0.251122 0.298552 -0.001982 56440
-0.453882 0.010146 -0.006793 56440
-0.370110 -0.304365 0.049852 56440
0.033527 -0.394401 0.009497 56440
0.328598 -0.350377 -0.014077 56440
0.466220 0.032818 0.049985 56440
0.253523 0.274428 -0.013551 56440
-0.002146 0.382215 0.022608 56440
-0.343605 0.357765 -0.012263 56440
-0.374003 -0.017039 0.008342 56440
-0.248296 -0.266164 0.027649 56440
0.015038 -0.377248 0.000563 56440
0.266257 -0.245322 -0.005121 56440
0.438938 -0.015686 0.049180 56440
0.354847 0.295828 0.014050 56440
0.024916 0.374508 -0.020548 56440
-0.321185 0.269741 0.033491 56440
-0.442039 -0.012477 0.009310 56440
-0.299034 -0.266256 0.019639 56440
0.031281 -0.359338 -0.038579 56440
0.310218 -0.287555 -0.001004 56440
0.450130 -0.010013 -0.035621 56440
0.330056 0.339653 -0.041720 56440
-0.036283 0.472802 0.032989 56440
-0.274563 0.237991 0.031609 56440
-0.493709 0.014251 0.026159 56440
-0.269803 -0.277045 -0.045511 56440
-0.012119 -0.361159 -0.005493 56440
0.329934 -0.314193 -0.045287 56440
0.450144 -0.024231 0.023898 56440
0.250654 0.274352 -0.005340 56440
0.038519 0.388983 0.004245 56440
-0.263476 0.246513 -0.031786 56440
-0.378186 -0.010295 -0.024980 56440
-0.259169 -0.289141 -0.046103 56440
0.034076 -0.369594 0.027502 56440
0.295009 -0.258978 -0.045678 56440
0.404857 -0.039409 -0.037922 56440
0.255086 0.288535 0.026403 56440
0.030506 0.473012 -0.016592 56440
-0.242853 0.293498 0.045649 56440
-0.401926 -0.003177 0.029458 56440
-0.356061 -0.318709 -0.020468 56440
-0.011805 -0.452152 -0.028179 56440
0.324620 -0.328505 -0.039010 56440
0.381034 0.032598 0.012738 56440
0.296242 0.309608 -0.049334 56440
0.016880 0.461108 0.034102 56440
-0.245081 0.273674 0.034008 56440
-0.440420 0.010875 -0.028088 56440
-0.253877 -0.245691 0.038667 56440
-0.008423 -0.434577 0.004371 56440
0.365035 -0.318103 -0.010155 56440
0.467537 -0.027005 -0.016302 56440
0.296476 0.269931 0.001450 56440
0.022578 0.428386 -0.025074 56440
-0.312424 0.288009 -0.012482 56440
-0.488410 0.025260 0.000758 56440
-0.331289 -0.271291 -0.013565 56440
-0.012591 -0.434005 0.011467 56440
0.266288 -0.297264 -0.034853 56440
0.358761 0.030331 -0.004141 56440
0.317833 0.283347 0.047293 56440
-0.041252 0.427074 0.019296 56440
-0.336947 0.321710 0.005320 56440
-0.493928 -0.001380 -0.042153 56440
-0.253883 -0.264053 0.007686 56440
0.005983 -0.379421 0.005700 56440
0.308456 -0.312586 -0.029722 56440
0.437407 -0.016747 0.012931 56440
0.245466 0.271160 -0.044875 56440
0.019741 0.353070 -0.024146 56440
-0.278744 0.320043 0.049014 56440
-0.466100 -0.041622 0.049371 56440
-0.316727 -0.377825 0.048175 56440
-0.022511 -0.353702 0.023770 56440
0.361175 -0.326232 -0.018940 56440
0.461278 -0.038486 -0.026745 56440
0.312840 0.282461 -0.036642 56440
-0.021193 0.372670 0.020479 56440
-0.239771 0.255541 0.026999 56440
-0.489521 0.008099 -0.041183 56440
-0.269478 -0.289510 -0.003661 56440
-0.004462 -0.473228 0.021679 56440
0.268873 -0.316510 0.038593 56440
0.445956 -0.001017 0.039124 56440
0.236761 0.278237 -0.033776 56440
-0.005122 0.448754 -0.010191 56440
-0.334834 0.348556 0.028728 56440
-0.358725 0.034888 -0.012569 56440
-0.295857 -0.275128 0.006708 56440
0.010511 -0.472275 -0.009811 56440
0.328364 -0.295025 0.036546 56440
0.360791 -0.001011 0.032998 56440
0.256588 0.250498 -0.016445 56440
0.010144 0.403943 0.034973 56440
-0.304901 0.323835 -0.013855 56440
-0.496473 -0.037338 -0.007697 56440
-0.271589 -0.296834 0.026566 56440
-0.044675 -0.480175 0.017941 56440
0.301939 -0.293316 -0.035100 56440
0.375212 0.022152 0.026035 56440
0.290335 0.350749 -0.024515 56440
0.035844 0.477274 -0.031934 56440
-0.296103 0.317347 -0.047668 56440
-0.496116 0.011823 -0.028397 56440
-0.270432 -0.271801 -0.035104 56440
0.022573 -0.377821 0.016582 56440
0.297589 -0.304855 -0.006121 56440
0.400905 0.020574 -0.014797 56440
0.295498 0.313407 -0.003266 56440
-0.010637 0.409408 0.032684 56440
-0.315196 0.281394 -0.045260 56440
-0.463198 -0.045052 0.040824 56440
-0.317272 -0.265521 -0.029914 56440
-0.026878 -0.424790 0.026820 56440
0.305335 -0.272924 -0.027220 56440
0.455026 0.031797 -0.013600 56440
0.252187 0.296377 0.001791 56440
-0.030917 0.382562 0.015686 56440
-0.313073 0.369627 0.018656 56440
-0.421617 0.007217 -0.048422 56440
-0.278250 -0.274233 0.021563 56440
-0.024525 -0.362058 -0.004264 56440
0.334038 -0.287368 -0.028263 56440
0.471069 -0.007688 -0.044326 56440
0.260009 0.284212 0.048672 56440
0.006800 0.374775 -0.030802 56440
-0.311967 0.378061 0.003509 56440
-0.469096 0.013073 -0.005618 56440
-0.316013 -0.371661 0.043901 56440
-0.016051 -0.427272 0.018231 56440
0.364511 -0.304290 0.000271 56440
0.499013 -0.006852 -0.025924 56440
0.373193 0.329193 -0.037438 56440
0.007907 0.364829 0.016045 56440
-0.327756 0.377080 0.044505 56440
-0.351854 0.020863 -0.021969 56440
-0.299167 -0.284057 -0.041488 56440
0.035903 -0.382106 -0.011308 56440
0.297343 -0.264079 0.031122 56440
0.480292 0.008485 -0.025612 56440
0.294098 0.357372 -0.038250 56440
-0.027672 0.452605 0.019233 56440
-0.294099 0.265810 0.031923 56440
-0.355723 0.012952 -0.011071 56440
-0.248021 -0.291538 -0.025537 56440
-0.046954 -0.478286 -0.025406 56440
0.348443 -0.345510 -0.042044 56440
0.437577 -0.034595 -0.011997 56440
0.339012 0.315751 -0.048291 56440
0.018497 0.434442 -0.046570 56440
-0.265835 0.255560 0.022883 56440
-0.375416 -0.035140 -0.033593 56440
-0.281699 -0.337747 -0.043835 56440
0.037818 -0.422971 0.031099 56440
0.329027 -0.276849 0.021002 56440
0.354426 0.024843 0.011645 56440
0.308892 0.357825 -0.040674 56440
-0.008487 0.354755 0.032657 56440
-0.271778 0.243931 0.019429 56440
-0.364939 0.023964 0.025988 56440
-0.287969 -0.271187 0.010031 56440
0.027518 -0.453856 -0.040337 56440
0.333864 -0.297666 0.023497 56440
0.354934 0.022538 0.014816 56440
0.286675 0.322540 0.004709 56440
0.021476 0.382369 0.046433 56440
-0.340840 0.346340 -0.008140 56440
-0.490942 -0.027366 0.049883 56440
-0.304080 -0.311937 -0.009338 56440
-0.001142 -0.350548 0.038692 56440
0.350871 -0.349855 -0.002673 56440
0.386396 -0.024836 0.034019 56440
0.319024 0.334186 0.045695 56440
-0.015045 0.396585 0.042191 56440
-0.320197 0.306677 0.009969 56440
-0.369837 0.027169 0.041697 56440
-0.314432 -0.294135 0.009514 56440
0.009493 -0.350989 0.043450 56440
0.285178 -0.325730 -0.048267 56440
0.391923 0.019963 0.002048 56440
0.265541 0.250407 0.048651 56440
-0.013599 0.491128 -0.023728 56440
-0.259352 0.277659 -0.020366 56440
-0.447088 0.033420 -0.045972 56440
-0.280904 -0.329964 0.010400 56440
0.027737 -0.396870 0.011568 56440
0.334605 -0.340424 -0.022721 56440
0.368536 -0.005091 -0.039406 56440
0.289609 0.269658 0.011428 56440
-0.035461 0.416555 0.029276 56440
-0.259193 0.304729 -0.044606 56440
-0.494805 0.003255 -0.036894 56440
-0.276425 -0.321174 -0.018171 56440
-0.008397 -0.436011 -0.036252 56440
0.312049 -0.298329 -0.039252 56440
0.355478 0.019276 -0.010685 56440
0.256004 0.273613 -0.049492 56440
-0.023889 0.490725 0.038175 56440
-0.264180 0.298205 -0.037439 56440
-0.482974 -0.045973 -0.022932 56440
-0.375937 -0.320079 0.043370 56440
-0.025985 -0.484417 0.027625 56440
0.264102 -0.293232 -0.047576 56440
0.443377 -0.036179 0.005468 56440
0.268341 0.300287 -0.034796 56440
0.022328 0.474396 -0.013357 56440
-0.277868 0.324109 0.032425 56440
-0.362699 0.014327 -0.000289 56440
-0.292465 -0.322994 -0.019717 56440
0.009881 -0.375798 -0.022561 56440
0.307992 -0.306536 0.005284 56440
0.445667 0.020909 -0.021759 56440
0.304740 0.303639 -0.008614 56440
-0.018048 0.398268 -0.002758 56440
-0.328367 0.300446 -0.020530 56440
-0.400236 0.010621 0.043052 56440
-0.298201 -0.314191 -0.040708 56440
0.002748 -0.411454 -0.022243 56440
0.306119 -0.347703 0.035250 56440
0.425876 -0.021837 0.041345 56440
0.297421 0.302657 0.032977 56440
0.029101 0.457454 0.032315 56440
-0.380267 0.324248 0.005758 56440
-0.356823 0.027633 -0.004308 56440
-0.270292 -0.225799 0.030353 56440
-0.024723 -0.351666 -0.044898 56440
0.291772 -0.279003 -0.043637 56440
0.399189 -0.021318 0.028309 56440
0.261486 0.272940 -0.043367 56440
0.026839 0.423637 -0.017180 56440
-0.291075 0.291283 0.006706 56440
-0.471846 -0.028777 -0.038357 56440
-0.287824 -0.335490 -0.029522 56440
-0.043334 -0.433919 -0.022339 56440
0.282061 -0.235281 -0.037925 56440
0.424900 -0.026320 -0.025681 56440
0.365350 0.299923 0.043618 56440
0.006778 0.455939 -0.047887 56440
-0.275718 0.247724 0.045728 56440
-0.424426 -0.016477 0.042308 56440
-0.374660 -0.320901 0.012904 56440
0.000296 -0.371016 0.028219 56440
0.284776 -0.298406 -0.001049 56440
0.491976 0.001559 -0.001248 56440
0.279596 0.340492 0.044188 56440
-0.046499 0.473497 -0.000769 56440
-0.313795 0.347297 0.011701 56440
-0.349867 -0.011586 0.026441 56440
-0.259788 -0.286938 -0.022802 56440
-0.018253 -0.451356 0.021221 56440
0.331129 -0.345824 0.032465 56440
0.462441 -0.032453 0.030482 56440
0.286765 0.267703 0.038807 56440
0.002776 0.476697 0.003998 56440
-0.346588 0.352832 0.030102 56440
-0.465444 -0.020428 -0.016721 56440
-0.337786 -0.353489 0.015603 56440
0.006141 -0.369013 0.049392 56440
0.246852 -0.268788 -0.019932 56440
0.384977 -0.010827 0.041911 56440
0.335232 0.301117 -0.010734 56440
0.038479 0.393192 -0.012429 56440
-0.317481 0.352562 0.004800 56440
-0.389917 0.032290 0.000230 56440
-0.361358 -0.315429 -0.019436 56440
-0.035304 -0.378994 0.015518 56440
0.333194 -0.286375 0.044357 56440
0.453386 -0.014138 0.003080 56440
0.278885 0.329762 0.024509 56440
-0.018652 0.472175 -0.013118 56440
-0.331412 0.271736 0.046029 56440
-0.459601 -0.032371 0.043776 56440
-0.300829 -0.274668 0.012168 56440
-0.008593 -0.466050 0.048596 56440
0.287315 -0.277885 -0.011799 56440
0.415366 -0.032291 0.046269 56440
0.307612 0.308190 0.031142 56440
-0.009482 0.464082 -0.035485 56440
-0.353479 0.296398 0.014198 56440
-0.461425 -0.044644 0.021598 56440
-0.301278 -0.290650 -0.049464 56440
0.004503 -0.460488 -0.025879 56440
0.359588 -0.296111 -0.037284 56440
0.462676 -0.037560 -0.029257 56440
0.289740 0.297657 0.018104 56440
-0.014759 0.385451 -0.010572 56440
-0.331050 0.339012 -0.036646 56440
-0.489099 0.017004 -0.048286 56440
-0.261058 -0.257436 -0.014235 56440
-0.029829 -0.410236 -0.043616 56440
0.331923 -0.284461 0.001620 56440
0.362977 -0.009590 0.045733 56440
0.277365 0.232064 0.001445 56440
0.037203 0.408060 -0.012273 56440
-0.306174 0.266782 -0.019667 56440
-0.429470 0.028212 0.049484 56440
-0.323835 -0.308297 0.013503 56440
0.002868 -0.447359 0.033245 56440
0.279999 -0.305137 0.034481 56440
0.477115 0.033132 -0.041650 56440
0.323871 0.273260 0.047782 56440
-0.040618 0.462621 -0.038182 56440
-0.302451 0.272913 -0.007117 56440
-0.402004 0.019413 -0.038187 56440
-0.360206 -0.333503 -0.043659 56440
-0.039548 -0.459042 -0.026783 56440
0.324630 -0.364950 0.049652 56440
0.411524 -0.017779 0.002204 56440
0.363834 0.342810 0.032278 56440
-0.045016 0.492077 -0.016060 56440
-0.347440 0.300267 0.030893 56440
-0.394243 0.016184 0.033848 56440
-0.258688 -0.296877 0.011855 56440
-0.021863 -0.366440 -0.018933 56440
0.313288 -0.327612 0.009231 56440
0.464895 -0.001242 0.029582 56440
0.250988 0.254136 0.041066 56440
0.035662 0.393185 0.017104 56440
-0.279078 0.315327 0.013614 56440
-0.415592 -0.006879 0.035612 56440
-0.353089 -0.303140 -0.020140 56440
0.031942 -0.385027 -0.045618 56440
0.334879 -0.323835 0.036766 56440
0.489254 0.039477 0.035339 56440
0.269038 0.278661 0.030512 56440
-0.021082 0.403489 0.043653 56440
-0.267570 0.246799 -0.045335 56440
-0.396953 0.028289 0.019321 56440
-0.337054 -0.344026 -0.007584 56440
-0.043433 -0.481914 0.029061 56440
0.309523 -0.287435 -0.031691 56440
0.478166 -0.047821 -0.026057 56440
0.265882 0.303043 -0.003623 56440
-0.037345 0.431325 -0.035051 56440
-0.339392 0.289401 0.012314 56440
-0.442899 0.020327 -0.014971 56440
-0.331280 -0.278813 -0.038342 56440
-0.030872 -0.370445 0.006788 56440
0.297839 -0.336127 -0.030694 56440
0.470327 -0.021802 0.039847 56440
0.305085 0.319343 0.012420 56440
-0.017500 0.395664 0.044134 56440
-0.251541 0.276751 -0.024083 56440
-0.384799 0.009558 0.011110 56440
-0.299590 -0.332893 -0.006119 56440
0.033600 -0.491549 -0.012053 56440
0.311947 -0.372005 -0.025662 56440
0.458597 0.028706 -0.013547 56440
0.266353 0.320763 -0.003881 56440
-0.021910 0.437517 -0.027137 56440
-0.235403 0.269885 0.033839 56440
-0.470525 0.029098 -0.008646 56440
-0.345032 -0.357951 -0.039678 56440
0.027837 -0.444193 0.039177 56440
0.298906 -0.364783 0.013526 56440
0.396432 0.008689 0.005674 56440
0.261038 0.309786 -0.014479 56440
0.005143 0.451628 0.047560 56440
-0.276647 0.275157 -0.006471 56440
-0.476072 -0.033082 -0.042929 56440
-0.286695 -0.321095 -0.016194 56440
0.037443 -0.393893 -0.039486 56440
0.317944 -0.292441 -0.046391 56440
0.462072 -0.042972 0.020960 56440
0.299102 0.261052 0.012588 56440
0.039648 0.486095 0.049520 56440
-0.340517 0.333182 -0.012404 56440
-0.350364 -0.011780 0.042472 56440
-0.296602 -0.330216 -0.001814 56440
0.045008 -0.466660 0.009581 56440
0.280315 -0.234468 0.005827 56440
0.475841 -0.012647 -0.040992 56440
0.294048 0.253120 -0.013799 56440
-0.042290 0.474119 -0.011611 56440
-0.291078 0.313185 -0.029914 56440
-0.427134 0.018506 -0.018237 56440
-0.295401 -0.289695 0.049308 56440
0.025324 -0.487392 -0.004783 56440
0.282938 -0.234159 -0.013297 56440
0.382635 0.005980 -0.016078 56440
0.262269 0.240184 -0.006261 56440
0.031965 0.467613 0.046022 56440
-0.378316 0.323283 -0.045292 56440
-0.417692 0.005812 -0.048070 56440
-0.305977 -0.255538 0.005150 56440
0.002451 -0.414228 -0.040386 56440
0.256183 -0.259581 0.045577 56440
0.445418 0.029806 -0.014348 56440
0.327488 0.281700 0.026531 56440
0.004684 0.490271 -0.018686 56440
-0.328806 0.326842 -0.031280 56440
-0.463537 0.014839 -0.031246 56440
-0.270128 -0.269033 -0.002657 56440
-0.042553 -0.443835 0.030472 56440
0.321780 -0.273291 0.037777 56440
0.491803 0.039580 -0.046422 56440
0.359311 0.306696 -0.005346 56440
-0.001423 0.451643 0.049240 56440
-0.250091 0.260633 -0.030135 56440
-0.436689 -0.003874 0.012127 56440
-0.357436 -0.332940 0.048333 56440
0.024830 -0.396119 -0.009661 56440
0.266395 -0.320571 -0.005983 56440
0.360218 -0.012120 0.008483 56440
0.360675 0.317025 -0.014728 56440
0.014305 0.464856 -0.042693 56440
-0.312503 0.323381 0.017549 56440
-0.399138 0.019970 0.003287 56440
-0.343597 -0.292085 -0.025346 56440
0.040146 -0.409044 -0.033287 56440
0.330124 -0.332676 -0.017166 56440
0.422962 0.003601 -0.010320 56440
0.282947 0.232731 -0.011836 56440
0.011694 0.494022 0.013635 56440
-0.291763 0.295693 -0.025333 56440
-0.462729 0.030378 0.018561 56440
-0.317300 -0.375362 0.039577 56440
-0.031793 -0.459664 -0.008582 56440
0.312973 -0.295816 0.025107 56440
0.400167 0.008560 0.003944 56440
0.343836 0.338202 0.044399 56440
-0.009816 0.496242 -0.006792 56440
-0.362417 0.325303 0.009084 56440
-0.417660 0.013373 0.042210 56440
-0.292051 -0.292942 0.019157 56440
0.032628 -0.440877 0.001375 56440
0.339505 -0.279543 0.039944 56440
0.422075 0.014085 -0.039965 56440
0.246645 0.278511 -0.023913 56440
-0.016273 0.396150 0.008009 56440
-0.316930 0.373637 -0.027046 56440
-0.435255 -0.016080 0.043723 56440
-0.291462 -0.309598 -0.021614 56440
-0.002993 -0.444450 -0.041768 56440
0.357191 -0.298347 0.019359 56440
0.463035 0.012407 -0.023768 56440
0.297898 0.248192 -0.001710 56440
-0.029223 0.419537 -0.040703 56440
-0.375095 0.317999 -0.025720 56440
-0.373796 0.000480 0.012507 56440
-0.315464 -0.261215 -0.024131 56440
0.034516 -0.386958 0.046211 56440
0.316043 -0.348066 0.009845 56440
0.456030 0.001726 -0.043654 56440
0.269585 0.271430 -0.008098 56440
0.032669 0.431177 0.031030 56440
-0.269474 0.290750 -0.046467 56440
-0.443868 0.030209 0.024309 56440
-0.296026 -0.325901 -0.033780 56440
-0.023914 -0.377541 0.047688 56440
0.320982 -0.340813 -0.033514 56440
0.440618 0.034846 -0.009082 56440
0.324068 0.365557 0.006990 56440
-0.007008 0.458889 0.039131 56440
-0.318882 0.260891 0.035217 56440
-0.484728 0.003340 -0.020830 56440
-0.310120 -0.259326 -0.034109 56440
-0.020530 -0.466783 -0.009998 56440
0.242811 -0.260157 -0.023510 56440
0.435807 0.043400 0.010880 56440
0.274795 0.261071 0.012509 56440
0.008443 0.481175 -0.034604 56440
-0.303109 0.309756 -0.048752 56440
-0.454484 0.001426 0.021436 56440
-0.285280 -0.253278 -0.043299 56440
-0.015020 -0.419141 0.040079 56440
0.328839 -0.352050 -0.010679 56440
0.472196 -0.010477 -0.023471 56440
0.292138 0.288674 -0.001570 56440
0.011187 0.465543 -0.026103 56440
-0.273980 0.268628 0.035737 56440
-0.372407 -0.021781 -0.014010 56440
-0.344269 -0.292377 0.003318 56440
0.006190 -0.492420 0.031759 56440
0.266221 -0.228685 -0.049208 56440
0.421342 -0.033607 -0.040240 56440
0.291116 0.302520 -0.042101 56440
-0.003764 0.402981 0.048847 56440
-0.310384 0.329649 0.040631 56440
-0.489896 0.040632 -0.010904 56440
-0.278169 -0.286204 0.008344 56440
0.028731 -0.421448 -0.028395 56440
0.348579 -0.301142 -0.040098 56440
0.411875 -0.031002 0.036377 56440
0.246385 0.264076 -0.027505 56440
-0.006110 0.424724 -0.029809 56440
-0.299072 0.245867 0.045420 56440
-0.354520 0.021711 0.015497 56440
-0.343380 -0.329143 0.018031 56440
0.018582 -0.379406 -0.029716 56440
0.309507 -0.280803 -0.020316 56440
0.369343 0.020798 0.038816 56440
0.259287 0.253585 -0.000501 56440
-0.030567 0.469111 0.022100 56440
-0.312885 0.325352 0.003860 56440
-0.367729 -0.013887 -0.048461 56440
-0.296869 -0.315975 -0.034167 56440
0.020606 -0.477053 -0.002906 56440
0.306231 -0.347777 -0.016939 56440
0.350367 0.000711 0.023200 56440
0.299018 0.300220 0.008765 56440
-0.012187 0.351804 -0.011450 56440
-0.239616 0.286338 -0.016024 56440
-0.367196 0.031670 -0.000044 56440
-0.305388 -0.308331 -0.004964 56440
0.020688 -0.374825 -0.046786 56440
0.345982 -0.297855 -0.000037 56440
0.400271 -0.016085 -0.048684 56440
0.302797 0.305591 0.010759 56440
0.021186 0.421104 -0.045302 56440
-0.253135 0.268222 -0.035868 56440
-0.363785 -0.017501 -0.027135 56440
-0.311361 -0.294218 -0.001705 56440
-0.042340 -0.457779 0.014931 56440
0.311858 -0.379236 0.025316 56440
0.450628 -0.037905 -0.033041 56440
0.305493 0.271996 0.003564 56440
-0.026305 0.419001 0.025778 56440
-0.275088 0.293810 0.014041 56440
-0.387002 -0.007101 -0.033186 56440
-0.329524 -0.353008 -0.037678 56440
-0.005380 -0.446350 0.006309 56440
0.291122 -0.298543 -0.043638 56440
0.397260 0.027592 0.039955 56440
0.254316 0.242536 -0.000961 56440
0.016617 0.367518 0.026621 56440
-0.317225 0.269208 -0.003257 56440
-0.359501 0.002843 0.038134 56440
-0.257426 -0.261454 -0.037739 56440
-0.016899 -0.451901 0.014910 56440
0.235041 -0.271761 -0.043606 56440
0.441159 0.027199 -0.008442 56440
0.310757 0.315782 0.045004 56440
0.034959 0.405980 0.014575 56440
-0.336691 0.307695 -0.005788 56440
-0.376807 -0.022416 -0.027023 56440
-0.284855 -0.261120 0.036381 56440
0.013591 -0.368728 0.012901 56440
0.356572 -0.316928 -0.030594 56440
0.366868 0.001216 0.001045 56440
0.314715 0.366785 -0.037126 56440
0.037339 0.459290 0.015841 56440
-0.326852 0.362239 0.001354 56440
-0.472990 0.037429 0.034094 56440
-0.380701 -0.321868 0.008589 56440
-0.033701 -0.395485 -0.046404 56440
0.291223 -0.303213 0.017530 56440
0.482433 -0.011473 -0.023283 56440
0.348817 0.286909 -0.025599 56440
0.019550 0.473713 -0.049804 56440
-0.301063 0.359316 -0.048017 56440
-0.370248 -0.012497 0.046000 56440
-0.290822 -0.248387 0.023775 56440
0.035584 -0.483628 0.018486 56440
0.343425 -0.352541 0.025471 56440
0.386688 -0.018650 0.042705 56440
0.344174 0.347162 0.041986 56440
0.025461 0.396705 -0.040806 56440
-0.369106 0.318851 0.044672 56440
-0.370503 0.035010 -0.018869 56440
-0.318916 -0.381441 0.015141 56440
0.037568 -0.418486 0.021049 56440
0.317700 -0.300791 0.009982 56440
0.424575 -0.019414 -0.017876 56440
0.372954 0.319519 0.016595 56440
-0.026627 0.350493 0.010592 56440
-0.332566 0.348654 -0.030469 56440
-0.392106 -0.036498 -0.008664 56440
-0.341826 -0.287458 0.023201 56440
-0.006615 -0.419471 -0.035153 56440
0.332078 -0.309443 -0.049716 56440
0.431779 0.031246 0.046857 56440
0.281610 0.244287 0.035816 56440
0.041955 0.426917 0.037679 56440
-0.292613 0.342453 -0.033163 56440
-0.403532 -0.034390 -0.034208 56440
-0.248251 -0.271369 -0.005822 56440
-0.032595 -0.378214 0.026654 56440
0.253484 -0.269316 0.036681 56440
0.411572 -0.031530 0.046984 56440
0.374256 0.306774 -0.045171 56440
0.004891 0.421109 0.038372 56440
-0.249837 0.255434 -0.039760 56440
-0.465883 -0.028027 -0.037121 56440
-0.269567 -0.279527 -0.034537 56440
-0.042749 -0.465735 -0.009933 56440
0.295114 -0.301289 -0.004603 56440
0.446595 -0.043096 0.019084 56440
0.374540 0.308146 0.047078 56440
-0.027238 0.420210 0.001468 56440
-0.301312 0.334746 0.014515 56440
-0.471954 -0.017735 -0.014729 56440
-0.305293 -0.322960 0.026970 56440
0.043115 -0.449033 -0.038184 56440
0.254468 -0.276685 0.031426 56440
0.398686 -0.030829 -0.000337 56440
0.295574 0.349712 -0.011319 56440
0.006713 0.434245 0.018715 56440
-0.285848 0.349149 0.019469 56440
-0.372688 0.031658 -0.025189 56440
-0.257070 -0.280727 0.005941 56440
-0.006479 -0.404047 0.009367 56440
0.275238 -0.306845 0.032985 56440
0.409952 -0.017668 0.005914 56440
0.255657 0.308183 0.042269 56440
0.039772 0.464239 0.018873 56440
-0.280939 0.305857 -0.022155 56440
-0.425584 0.041622 0.048448 56440
-0.287372 -0.310106 0.010778 56440
0.014271 -0.443495 -0.011979 56440
0.300518 -0.255399 0.022324 56440
0.365235 0.031581 0.045217 56440
0.310520 0.374948 0.018317 56440
-0.002802 0.436519 -0.044151 56440
-0.317914 0.279534 -0.024865 56440
-0.351144 -0.026590 -0.019072 56440
-0.314287 -0.288067 -0.047787 56440
-0.028661 -0.448384 0.024863 56440
0.302480 -0.368299 0.036986 56440
0.447369 0.028216 -0.000714 56440
0.334938 0.332635 -0.019638 56440
-0.000706 0.478646 -0.023145 56440
-0.308174 0.313451 0.002459 56440
-0.434447 -0.006205 0.034665 56440
-0.293367 -0.358389 -0.036194 56440
-0.036995 -0.450008 0.040966 56440
0.301492 -0.300360 -0.032735 56440
0.370073 -0.002449 0.024665 56440
0.336846 0.334825 0.040272 56440
0.023925 0.461107 0.029042 56440
-0.252100 0.307846 -0.034372 56440
-0.417012 -0.029031 0.012243 56440
-0.303054 -0.264025 -0.004472 56440
-0.015991 -0.494197 -0.044659 56440
0.310872 -0.337775 -0.006114 56440
0.415340 0.009467 0.036198 56440
0.248739 0.271700 -0.021053 56440
-0.019875 0.437517 0.035371 56440
-0.312799 0.346733 -0.032461 56440
-0.385151 0.030919 0.027557 56440
-0.306590 -0.310526 0.049417 56440
0.040130 -0.492313 0.002880 56440
0.289719 -0.265637 0.046704 56440
0.465044 0.021234 -0.048912 56440
0.275038 0.301675 0.017669 56440
0.021349 0.379810 -0.003210 56440
-0.347389 0.288417 -0.049966 56440
-0.391983 -0.003301 -0.001488 56440
-0.283656 -0.297281 0.015811 56440
0.007458 -0.488148 0.017127 56440
0.250150 -0.278336 0.010381 56440
0.393814 0.007816 -0.001892 56440
0.309969 0.266440 -0.039337 56440
0.015001 0.493618 0.043726 56440
-0.341901 0.355407 -0.026731 56440
-0.480565 -0.014835 -0.022536 56440
-0.329293 -0.353344 -0.043116 56440
-0.036755 -0.493750 0.046040 56440
0.301686 -0.359926 -0.026913 56440
0.421513 0.033826 -0.042441 56440
0.264732 0.238941 -0.023730 56440
0.006828 0.382714 -0.030614 56440
-0.230368 0.266957 -0.002642 56440
-0.497015 -0.046651 -0.028698 56440
-0.276410 -0.261272 -0.029370 56440
0.032109 -0.428648 -0.046994 56440
0.277329 -0.308359 0.005029 56440
0.416647 0.031079 -0.013620 56440
0.276911 0.310032 -0.041679 56440
0.035216 0.450113 0.038160 56440
-0.287338 0.298893 -0.048897 56440
-0.418384 0.023124 0.030693 56440
-0.341837 -0.338879 -0.021356 56440
0.006787 -0.357835 0.031569 56440
0.380377 -0.314085 -0.001691 56440
0.447519 -0.035913 0.032005 56440
0.331048 0.341867 0.049327 56440
-0.025124 0.393876 0.035831 56440
-0.342887 0.330963 0.037714 56440
-0.424308 -0.040355 0.044685 56440
-0.319465 -0.340821 -0.024221 56440
-0.022836 -0.413181 -0.044500 56440
0.299572 -0.295938 -0.008488 56440
0.391181 -0.033807 0.027992 56440
0.270321 0.266594 -0.033775 56440
0.035918 0.430874 -0.048912 56440
-0.331886 0.366623 0.045142 56440
-0.419093 -0.003072 -0.014878 56440
-0.293472 -0.278177 0.017716 56440
-0.032297 -0.483660 0.042304 56440
0.279112 -0.241963 -0.031523 56440
0.475645 0.028182 -0.038133 56440
0.280210 0.307545 0.014094 56440
-0.006984 0.447363 0.026414 56440
-0.303155 0.358021 0.016334 56440
-0.388174 0.038652 0.045843 56440
-0.278905 -0.253622 -0.020437 56440
0.015787 -0.429810 0.007749 56440
0.288078 -0.240911 0.001820 56440
0.447960 0.042052 0.040283 56440
0.272675 0.278236 -0.027509 56440
-0.030845 0.362165 0.000095 56440
-0.268130 0.261454 0.034314 56440
-0.377597 -0.008542 0.045676 56440
-0.325095 -0.295430 -0.033512 56440
0.020383 -0.421978 0.022307 56440
0.304653 -0.269498 0.028399 56440
0.464777 -0.013147 0.017546 56440
0.343143 0.317130 -0.016442 56440
0.020947 0.411911 -0.019971 56440
-0.302214 0.326329 -0.013615 56440
-0.418369 0.007114 0.022859 56440
-0.297588 -0.271082 0.032485 56440
-0.013054 -0.424684 -0.032485 56440
0.303453 -0.281705 0.011062 56440
0.415280 0.012300 -0.031392 56440
0.299956 0.273472 -0.024181 56440
0.004866 0.415020 -0.033294 56440
-0.332965 0.348692 0.029926 56440
-0.479044 0.009588 -0.027605 56440
-0.285674 -0.259319 -0.032455 56440
-0.029106 -0.415376 -0.029148 56440
0.227657 -0.268338 0.027630 56440
0.437847 0.038343 0.014169 56440
0.291497 0.280836 0.012484 56440
-0.008842 0.420951 0.006021 56440
-0.257705 0.260988 -0.015936 56440
-0.391103 -0.037449 0.048814 56440
-0.298411 -0.255393 0.046661 56440
0.045014 -0.454571 -0.046508 56440
0.333092 -0.369449 -0.022544 56440
0.369502 0.022544 0.026206 56440
0.354289 0.321762 -0.006694 56440
0.031433 0.412898 0.002627 56440
-0.317385 0.380479 -0.011361 56440
-0.412341 -0.010142 -0.007464 56440
-0.296460 -0.326439 -0.017682 56440
0.030253 -0.423490 0.002490 56440
0.273041 -0.246052 0.014315 56440
0.460845 -0.037371 -0.028514 56440
0.311944 0.376483 0.037248 56440
-0.016043 0.407260 0.001163 56440
-0.290556 0.299636 0.042300 56440
-0.393960 -0.016597 -0.039442 56440
-0.263450 -0.275757 0.014993 56440
0.015844 -0.460298 0.049938 56440
0.315400 -0.296100 -0.013832 56440
0.392307 -0.038620 -0.027861 56440
0.297827 0.328694 -0.039247 56440
0.030964 0.489549 -0.020978 56440
-0.333291 0.327133 0.013848 56440
-0.474839 -0.043566 -0.022512 56440
-0.279090 -0.260195 0.001142 56440
0.015560 -0.370129 0.046173 56440
0.328441 -0.327778 -0.044856 56440
0.402523 0.025326 0.045834 56440
0.281703 0.255341 0.041968 56440
-0.026571 0.477196 0.010640 56440
-0.229700 0.277693 -0.025517 56440
-0.412792 -0.038933 0.003580 56440
-0.332783 -0.282965 -0.049119 56440
0.010564 -0.499674 0.049778 56440
0.300658 -0.357282 0.026004 56440
0.383181 0.010376 0.004354 56440
0.306809 0.259070 -0.003989 56440
-0.021218 0.411370 -0.049888 56440
-0.318052 0.263520 -0.009980 56440
-0.433191 -0.014462 0.049467 56440
-0.310384 -0.310457 0.027596 56440
-0.014908 -0.497338 -0.040527 56440
0.297003 -0.261225 -0.028781 56440
0.402244 0.018738 -0.017853 56440
0.311880 0.330540 -0.043284 56440
-0.034912 0.475286 0.009153 56440
-0.352800 0.309865 -0.012578 56440
-0.379999 0.000032 -0.013117 56440
-0.270621 -0.327521 -0.032717 56440
-0.013870 -0.487350 0.011392 56440
0.382577 -0.318859 0.026858 56440
0.404580 -0.003999 0.004927 56440
0.315456 0.298957 -0.039302 56440
-0.027713 0.433621 -0.000317 56440
-0.277009 0.299214 -0.022649 56440
-0.419081 0.015908 0.040038 56440
-0.349011 -0.341400 -0.017184 56440
0.030615 -0.362199 0.016019 56440
0.313691 -0.317456 0.026674 56440
0.424713 0.009928 0.023373 56440
0.327967 0.306343 -0.014179 56440
0.030725 0.451964 0.037599 56440
-0.351994 0.288961 0.039114 56440
-0.369071 0.009526 0.021593 56440
-0.266552 -0.280031 -0.033397 56440
0.010071 -0.490703 0.010828 56440
0.313975 -0.373421 -0.012287 56440
0.470346 0.001760 -0.046209 56440
0.277783 0.254035 0.041267 56440
0.009098 0.435980 0.048086 56440
-0.300981 0.299846 0.013480 56440
-0.440674 -0.023759 0.026812 56440
-0.317720 -0.336103 0.015711 56440
-0.024166 -0.404292 0.027503 56440
0.315644 -0.330990 -0.018255 56440
0.497160 -0.048389 0.020955 56440
0.350145 0.287000 -0.025124 56440
-0.005938 0.475245 -0.045124 56440
-0.277037 0.272665 -0.027458 56440
-0.434000 -0.013808 -0.019742 56440
-0.274179 -0.272858 -0.014940 56440
-0.002596 -0.353048 0.024285 56440
0.327145 -0.302220 0.027991 56440
0.416747 0.026237 0.005599 56440
0.293517 0.337512 -0.001743 56440
0.015329 0.476564 -0.017642 56440
-0.343961 0.335290 -0.030046 56440
-0.354336 -0.035250 -0.035076 56440
-0.293666 -0.277726 0.049232 56440
-0.007276 -0.391338 -0.024116 56440
0.309351 -0.323256 -0.021625 56440
0.384211 0.024728 0.010352 56440
0.323613 0.341924 -0.007555 56440
-0.032078 0.423030 -0.042206 56440
-0.279481 0.315070 -0.034669 56440
-0.477083 -0.002293 0.010909 56440
-0.296048 -0.257483 -0.014120 56440
-0.005129 -0.433382 0.041810 56440
0.273311 -0.302011 0.031478 56440
0.384208 0.019669 -0.043128 56440
0.343335 0.291643 0.012850 56440
-0.031844 0.388373 0.001953 56440
-0.255878 0.289362 -0.047781 56440
-0.393963 -0.002486 -0.039477 56440
-0.278778 -0.253860 -0.014541 56440
-0.002268 -0.364224 0.030999 56440
0.339482 -0.304310 -0.018225 56440
0.483736 0.022767 -0.010006 56440
0.363292 0.336421 0.016253 56440
-0.022779 0.365339 0.014404 56440
-0.287551 0.252286 -0.027347 56440
-0.393028 -0.028040 -0.017307 56440
-0.343760 -0.309351 0.013172 56440
0.001968 -0.394294 -0.018484 56440
0.366637 -0.334628 -0.040430 56440
0.471260 0.019683 0.025485 56440
0.231949 0.279120 0.001630 56440
-0.001856 0.474946 0.013026 56440
-0.293064 0.286746 -0.005604 56440
-0.390307 -0.018533 -0.026192 56440
-0.287947 -0.308375 0.032791 56440
0.023847 -0.397434 -0.004615 56440
0.346465 -0.288134 0.049791 56440
0.455791 0.004727 -0.016550 56440
0.330055 0.314507 -0.013994 56440
-0.026789 0.405820 -0.044780 56440
-0.279500 0.293696 0.005228 56440
-0.458890 -0.006448 -0.010847 56440
-0.311737 -0.276477 0.041086 56440
-0.026034 -0.387887 0.041916 56440
0.290030 -0.310540 0.033146 56440
0.443568 0.041679 0.044739 56440
0.250180 0.250024 0.034434 56440
0.028657 0.461297 -0.014251 56440
-0.302379 0.334568 -0.047600 56440
-0.450948 0.028848 -0.015974 56440
-0.362310 -0.299656 0.013221 56440
0.046963 -0.472448 -0.048814 56440
0.353777 -0.350737 -0.023641 56440
0.482571 0.004158 -0.034008 56440
0.300290 0.280274 0.022164 56440
-0.019475 0.371902 -0.026618 56440
-0.304087 0.319463 -0.003229 56440
-0.444129 -0.017236 0.017558 56440
-0.357703 -0.299619 0.032179 56440
-0.035974 -0.478936 0.044760 56440
0.277005 -0.290783 0.004998 56440
0.368301 0.024778 0.025578 56440
0.254553 0.254751 -0.003825 56440
-0.027424 0.439028 -0.026548 56440
-0.309301 0.272739 0.021804 56440
-0.390639 -0.003878 -0.001260 56440
-0.289887 -0.307302 0.019641 56440
-0.029441 -0.442998 -0.027944 56440
0.249866 -0.259376 -0.037953 56440
0.408830 -0.032764 0.009031 56440
0.330692 0.334026 -0.034620 56440
-0.036448 0.469365 -0.032096 56440
-0.339255 0.278119 -0.023414 56440
-0.412042 0.029390 0.046994 56440
-0.304152 -0.292237 0.019987 56440
-0.021326 -0.350815 -0.003526 56440
0.296750 -0.294046 0.001946 56440
0.484961 0.034452 0.010536 56440
0.337301 0.295320 -0.025786 56440
-0.021775 0.372595 -0.020402 56440
-0.327015 0.271090 0.048238 56440
-0.389291 -0.020580 0.049318 56440
-0.249454 -0.287496 -0.049385 56440
-0.033280 -0.496309 -0.023311 56440
0.245944 -0.257469 0.034793 56440
0.415868 -0.018154 -0.026665 56440
0.356928 0.334058 -0.000879 56440
0.002938 0.440309 -0.039147 56440
-0.304335 0.251159 -0.030571 56440
-0.387814 0.021307 0.048196 56440
-0.331152 -0.337422 -0.039057 56440
0.030831 -0.389572 0.036798 56440
0.263692 -0.248812 -0.024229 56440
0.495856 -0.034117 0.035085 56440
0.267059 0.239258 0.027022 56440
-0.002351 0.416805 0.022324 56440
-0.290611 0.269017 -0.033207 56440
-0.434071 0.043040 -0.025245 56440
-0.317653 -0.305985 -0.014892 56440
0.045523 -0.470951 -0.033007 56440
0.265318 -0.265466 -0.031775 56440
0.376171 0.013498 -0.046130 56440
0.330793 0.367555 -0.028021 56440
0.015551 0.457191 -0.039540 56440
-0.287496 0.338318 -0.036527 56440
-0.447055 0.003307 0.008255 56440
-0.296895 -0.317283 0.024056 56440
-0.011696 -0.354224 0.016464 56440
0.288336 -0.287123 0.039974 56440
0.389908 -0.033030 -0.007192 56440
