VERSION .7
FIELDS x y z rgb
SIZE 4 4 4 4
TYPE F F F U
COUNT 1 1 1 1
WIDTH 1387
HEIGHT 1
VIEWPOINT 0 0 0 1 0 0 0
POINTS 1387
DATA ascii
0.099415 0.138580 0.066854 51350
0.009544 0.010758 0.123664 51350
-0.073620 0.002063 -0.086440 51350
-0.032251 0.154629 0.128738 51350
0.058879 0.130697 0.114962 51350
-0.086712 -0.010337 0.043012 51350
-0.055257 -0.084397 -0.052975 51350
0.079974 0.092103 0.093391 51350
0.027019 -0.052839 -0.117991 51350
-0.033850 -0.069295 -0.075417 51350
-0.004858 -0.066705 0.131369 51350
0.049744 -0.057239 0.021460 51350
0.083344 0.042454 -0.005470 51350
-0.029642 0.134877 0.006258 51350
-0.096569 0.028943 -0.048224 51350
0.037534 0.199592 -0.057677 51350
0.064058 -0.059066 -0.020220 51350
0.007759 0.066547 0.088381 51350
0.018221 -0.004213 -0.009329 51350
0.093721 0.084126 0.071322 51350
-0.009319 0.138054 -0.037450 51350
-0.006977 0.047347 -0.039598 51350
0.004761 0.016144 0.052086 51350
-0.088653 0.001556 0.155877 51350
0.040935 -0.061444 -0.070528 51350
-0.150317 0.177143 -0.057847 51350
0.007800 -0.010478 0.106097 51350
0.020342 0.131836 0.181096 51350
-0.006743 -0.131619 0.013938 51350
0.003439 0.102866 0.059126 51350
0.154156 0.020505 0.097268 51350
-0.021952 0.054062 0.012686 51350
0.037771 0.023621 -0.002491 51350
-0.029087 0.112173 0.151380 51350
0.005307 0.196859 -0.068762 51350
-0.018906 0.121730 -0.038930 51350
0.012416 -0.012157 -0.019106 51350
-0.044806 -0.173808 -0.202562 51350
0.199232 -0.111707 0.012730 51350
-0.131560 -0.093778 -0.017174 51350
-0.058332 -0.027806 -0.090140 51350
-0.077898 -0.225143 -0.084131 51350
-0.089123 -0.089853 -0.034949 51350
-0.045552 0.046162 -0.070296 51350
-0.015014 -0.004424 0.037577 51350
-0.068859 -0.163263 -0.012382 51350
0.048350 -0.067374 -0.104027 51350
0.216270 0.083794 -0.026452 51350
0.104140 0.130396 0.104234 51350
-0.052622 -0.048775 0.087269 51350
0.038090 -0.140727 -0.034215 51350
-0.061768 -0.146304 -0.032724 51350
0.066481 0.022965 0.135217 51350
-0.034823 0.065436 -0.094428 51350
-0.017640 -0.208489 -0.028916 51350
-0.125803 -0.076837 0.000396 51350
-0.097993 0.002230 -0.214775 51350
-0.042933 -0.036241 0.100366 51350
0.107244 -0.153244 0.064917 51350
-0.036056 0.154029 0.118619 51350
-0.027229 0.113887 -0.036805 51350
-0.201427 -0.047529 0.008839 51350
-0.106379 -0.092694 -0.024262 51350
-0.015185 -0.172023 0.029047 51350
-0.051382 -0.101206 -0.052891 51350
-0.030961 -0.072302 0.125599 51350
-0.040620 -0.084385 -0.057580 51350
0.074490 -0.053926 0.175064 51350
-0.058819 -0.189825 0.132444 51350
-0.068057 -0.026055 -0.040045 51350
0.000178 0.147074 0.149844 51350
0.120116 -0.002185 -0.033872 51350
0.008428 -0.122141 -0.105844 51350
0.031037 0.100304 0.009590 51350
-0.084396 -0.160614 -0.144517 51350
-0.052896 -0.034819 -0.069346 51350
-0.019073 0.120545 0.098425 51350
-0.070816 0.091089 0.060842 51350
0.043052 0.085234 0.079773 51350
-0.010699 0.051222 -0.081199 51350
-0.099183 -0.015558 -0.138917 51350
0.175143 0.006502 0.081456 51350
-0.060777 0.042360 -0.034404 51350
0.004028 -0.070274 -0.029017 51350
-0.095092 -0.073554 0.080213 51350
0.013453 0.016533 -0.023442 51350
0.103603 -0.026743 -0.048040 51350
-0.086109 -0.152161 0.081659 51350
-0.058418 0.051777 -0.060603 51350
-0.189802 -0.138516 -0.019813 51350
0.006562 0.107198 0.135806 51350
0.119041 -0.087672 0.021604 51350
-0.059930 -0.337143 -0.099939 51350
0.008198 -0.053263 0.047097 51350
-0.074687 0.085454 -0.061192 51350
-0.133774 -0.040281 -0.016259 51350
0.063488 0.135569 -0.033363 51350
0.007621 0.138179 0.071848 51350
-0.083997 -0.065735 -0.108434 51350
-0.136616 0.034831 -0.077650 51350
0.091403 -0.007562 0.068783 51350
0.002533 0.078848 0.043443 51350
0.009315 -0.080663 0.024389 51350
0.077672 -0.029574 -0.088327 51350
-0.104124 0.093762 -0.029816 51350
0.059343 0.209077 -0.101578 51350
0.039206 -0.085237 0.048222 51350
-0.040836 0.145673 -0.029571 51350
-0.051087 0.078744 -0.052245 51350
0.000750 -0.045098 0.012080 51350
0.080660 0.143060 0.011779 51350
-0.016587 0.183616 -0.117408 51350
-0.002356 -0.148816 0.093920 51350
0.006228 0.109981 -0.003006 51350
0.045283 0.103065 0.006023 51350
-0.103396 0.040635 0.117179 51350
-0.004725 0.008787 0.006526 51350
-0.007010 -0.112163 -0.016491 51350
0.004412 -0.053040 0.004834 51350
-0.119592 -0.039118 0.227450 51350
-0.014921 -0.065500 0.032999 51350
-0.022796 -0.115396 -0.023702 51350
-0.090418 0.010845 -0.047481 51350
0.194388 0.016981 -0.086379 51350
0.009427 -0.115577 0.035915 51350
-0.002108 -0.046623 0.160543 51350
0.046712 -0.081979 0.069625 51350
-0.027152 0.071448 0.057593 51350
0.012982 -0.083435 0.068889 51350
0.070240 -0.076212 0.019647 51350
-0.006285 -0.123000 -0.054775 51350
-0.083403 0.049039 -0.092841 51350
0.019954 0.012369 0.031840 51350
-0.072412 -0.057365 -0.038175 51350
-0.036174 0.133392 0.036148 51350
-0.048320 -0.148460 -0.024174 51350
0.100660 0.172064 0.026175 51350
0.123962 -0.029963 0.045924 51350
-0.090539 0.139983 0.043424 51350
-0.013527 0.186038 -0.171620 51350
-0.000646 -0.268401 -0.022253 51350
0.056559 -0.009083 0.056520 51350
-0.067343 -0.004859 -0.142528 51350
-0.012260 0.034250 0.015395 51350
0.053279 0.148501 -0.085755 51350
-0.025087 -0.053738 -0.088792 51350
-0.041644 0.060475 -0.015240 51350
-0.011773 -0.046095 0.001776 51350
-0.062796 0.026603 -0.034858 51350
-0.089655 0.025813 0.005008 51350
-0.071713 -0.094633 -0.064702 51350
-0.003823 0.001979 -0.009754 51350
-0.049704 -0.029575 0.049506 51350
0.047688 -0.031761 0.079752 51350
-0.123958 -0.011329 -0.161764 51350
-0.069253 -0.026361 0.071265 51350
0.028126 0.044168 -0.022636 51350
0.010648 -0.103036 0.043792 51350
0.036931 0.138993 0.009519 51350
-0.062172 -0.358428 -0.051158 51350
-0.083379 0.052158 -0.043969 51350
0.049062 0.027381 -0.068079 51350
-0.045661 -0.035347 0.015609 51350
-0.013322 -0.101096 0.014691 51350
-0.046060 -0.012963 -0.105886 51350
-0.009269 -0.224476 -0.078737 51350
0.021571 0.155928 0.057755 51350
-0.097891 0.115422 0.048987 51350
0.047688 -0.044004 -0.089791 51350
-0.100975 -0.133564 0.084669 51350
-0.037775 -0.058053 -0.054298 51350
-0.085927 -0.024182 -0.134954 51350
-0.049243 -0.078267 0.055071 51350
0.054026 -0.191653 0.003022 51350
0.023085 0.161479 0.050915 51350
-0.069192 0.006469 -0.140629 51350
-0.085958 -0.036419 0.020250 51350
-0.085894 0.130671 -0.211841 51350
0.032110 0.085974 -0.042023 51350
0.028521 0.035058 0.136915 51350
-0.059515 0.073220 -0.002500 51350
-0.038842 0.162477 0.003156 51350
-0.028080 -0.055140 0.003193 51350
0.006573 0.129913 0.082128 51350
-0.013563 -0.142435 0.003102 51350
0.035890 0.154998 -0.009988 51350
-0.030820 -0.022830 -0.088036 51350
0.122311 0.180012 0.042391 51350
-0.055890 -0.068638 -0.081661 51350
0.105736 -0.081465 -0.037498 51350
0.029100 0.024506 -0.027911 51350
0.012092 -0.113288 -0.017379 51350
0.093375 -0.018027 0.071919 51350
0.049946 0.038387 0.196173 51350
0.026310 -0.050093 -0.012639 51350
0.020055 0.074351 0.114032 51350
0.021379 0.161631 -0.053149 51350
0.026276 -0.143064 0.028219 51350
-0.109051 -0.181799 -0.030562 51350
-0.004648 0.052909 0.062108 51350
0.020514 0.036993 0.059465 51350
-0.027617 -0.116147 0.112733 51350
0.076390 0.074131 0.005814 51350
-0.021823 0.010888 -0.085002 51350
0.001422 -0.126154 -0.045003 51350
-0.028563 0.012614 -0.165201 51350
-0.045418 0.000613 0.196760 51350
0.062137 0.151734 -0.031108 51350
0.009943 -0.131924 0.027592 51350
-0.088794 0.068872 0.005454 51350
0.014179 0.137454 -0.022176 51350
0.072082 -0.170122 0.039380 51350
0.056421 0.111125 -0.037292 51350
0.045726 0.164102 -0.019041 51350
-0.085116 -0.042589 0.012211 51350
0.025609 0.139166 -0.103416 51350
0.040879 0.050731 0.099174 51350
-0.009437 0.031440 -0.024656 51350
0.127312 0.049705 0.039118 51350
0.112234 0.050895 -0.078938 51350
-0.042142 -0.111916 -0.098084 51350
0.073820 0.133195 0.025307 51350
-0.053812 0.013655 -0.052340 51350
0.054928 0.136334 0.035041 51350
0.039648 0.059060 0.005374 51350
-0.048767 -0.142003 0.006715 51350
0.046630 0.037854 -0.063764 51350
-0.049954 -0.092876 -0.067911 51350
-0.048503 -0.039954 -0.065240 51350
-0.051984 -0.004368 -0.066628 51350
-0.002632 -0.099448 -0.130298 51350
-0.005853 -0.207053 0.045723 51350
0.046516 0.078544 -0.033130 51350
-0.042822 -0.201850 0.005766 51350
0.058596 -0.138749 -0.068290 51350
0.010250 -0.040047 0.110849 51350
0.017588 0.054948 -0.162334 51350
-0.148979 -0.064164 -0.090218 51350
-0.071648 -0.069224 0.012974 51350
0.065900 0.021296 -0.103325 51350
0.106732 0.029578 -0.054231 51350
0.057410 -0.097667 0.028701 51350
-0.070295 -0.045073 -0.040913 51350
0.032342 0.259072 -0.095526 51350
-0.157081 -0.055756 -0.075967 51350
-0.035800 -0.045605 -0.008937 51350
0.020143 0.080882 0.053159 51350
-0.161028 -0.078624 -0.127025 51350
0.040728 0.046757 -0.047625 51350
0.047695 0.089478 0.037226 51350
0.052105 0.081552 -0.003135 51350
-0.068649 0.130662 -0.260883 51350
-0.103306 0.075521 0.006278 51350
-0.051342 -0.077692 0.023094 51350
0.063993 -0.037965 -0.054280 51350
-0.001201 -0.148115 -0.002878 51350
0.010234 0.235016 -0.107769 51350
0.035014 -0.068258 0.171625 51350
0.075364 0.125211 0.038303 51350
0.132812 -0.220034 0.065236 51350
-0.040076 0.119097 -0.051826 51350
0.007583 -0.135733 0.002308 51350
-0.009296 -0.068658 0.005568 51350
0.081359 -0.086251 0.107771 51350
0.063383 0.268210 -0.052505 51350
-0.028626 -0.054616 -0.066693 51350
-0.077205 -0.154849 -0.017059 51350
-0.076881 0.034791 -0.149346 51350
-0.028819 0.031708 -0.079922 51350
0.139198 0.098312 0.150738 51350
0.044692 0.004822 0.188959 51350
-0.011084 0.232661 0.011983 51350
0.119110 -0.021136 -0.063715 51350
-0.075407 -0.162350 -0.008138 51350
0.163510 -0.071175 0.039917 51350
0.080020 -0.051635 0.019537 51350
0.027047 0.080193 -0.050335 51350
0.051878 0.226242 0.053423 51350
0.058375 -0.035744 -0.056306 51350
-0.061375 -0.004111 -0.037955 51350
0.071281 -0.085034 -0.066889 51350
0.112195 -0.030604 -0.104498 51350
-0.187023 -0.149500 0.024896 51350
-0.009455 -0.007851 -0.009424 51350
0.059312 -0.042746 -0.096400 51350
0.006753 0.258217 -0.025639 51350
0.128087 0.101009 -0.020810 51350
-0.058825 0.187238 -0.009769 51350
0.018476 0.108249 0.020701 51350
0.171243 -0.059150 -0.039458 51350
-0.061101 0.062671 0.029878 51350
-0.082925 -0.155131 0.119041 51350
-0.079293 -0.084962 -0.002089 51350
0.042047 -0.085347 0.062076 51350
0.085097 -0.053559 -0.077032 51350
-0.049723 -0.062105 0.132617 51350
0.003420 0.038494 0.160472 51350
-0.109253 0.039503 -0.076852 51350
0.172742 0.193242 0.065791 51350
-0.022774 0.007334 -0.079774 51350
0.020455 0.013610 -0.032678 51350
-0.011530 0.112348 0.015970 51350
-0.126476 0.089477 0.048492 51350
-0.010576 -0.060300 0.067155 51350
-0.032052 -0.123723 0.011880 51350
0.035197 -0.109656 0.032459 51350
-0.010082 0.093134 0.123301 51350
-0.073200 -0.051740 0.165079 51350
-0.144777 0.008101 -0.074507 51350
-0.005326 0.024415 -0.053522 51350
0.130799 0.032337 -0.130776 51350
0.172162 0.200376 -0.008805 51350
0.009114 0.080242 -0.101425 51350
0.076750 -0.022321 -0.019766 51350
-0.055503 0.031968 0.095485 51350
0.103876 -0.085453 -0.103013 51350
-0.030530 0.154953 0.006288 51350
-0.073677 -0.016158 -0.075989 51350
0.018459 0.096882 0.062212 51350
0.000877 0.276106 -0.127094 51350
0.082241 0.163766 0.042258 51350
-0.141895 0.048283 -0.081884 51350
-0.161979 -0.085907 -0.098772 51350
-0.026463 0.174756 -0.008614 51350
0.069955 0.172828 -0.001346 51350
-0.057450 -0.354156 -0.051812 51350
0.032403 0.005321 0.075299 51350
0.028820 0.079295 0.078159 51350
-0.142112 -0.040591 -0.015979 51350
-0.001025 -0.101840 -0.051658 51350
-0.069387 -0.089910 -0.200703 51350
0.064537 0.129600 0.024262 51350
-0.033622 -0.057962 0.045360 51350
0.066323 0.048445 0.006417 51350
-0.006989 -0.050236 0.023323 51350
0.002441 0.035395 -0.046557 51350
0.069107 -0.130662 -0.043067 51350
0.042350 -0.072210 0.104815 51350
-0.000999 -0.105710 -0.012747 51350
0.298086 0.154401 -0.011229 51350
0.077780 0.161512 0.041532 51350
0.060659 -0.067782 0.055558 51350
-0.168327 0.074765 0.157521 51350
0.052191 0.142268 -0.111495 51350
0.122620 -0.092671 -0.013311 51350
-0.135598 0.010361 -0.048120 51350
-0.010298 0.053776 0.077674 51350
-0.059354 -0.313356 -0.013093 51350
0.017518 -0.072493 -0.020285 51350
-0.002836 -0.064201 0.013056 51350
-0.011538 -0.000874 0.090253 51350
0.038390 0.139483 -0.080514 51350
-0.022381 0.008060 -0.009304 51350
0.044796 0.126256 0.018929 51350
0.010180 -0.078628 -0.089215 51350
-0.043909 -0.067169 0.004596 51350
0.024327 0.045650 -0.029842 51350
-0.054681 0.038964 -0.032843 51350
0.042064 -0.087043 0.002233 51350
-0.007019 0.034308 0.051699 51350
0.212895 0.178846 0.061874 51350
0.033625 0.096457 0.071400 51350
-0.086446 -0.092370 -0.073280 51350
0.008321 0.162129 -0.049034 51350
-0.073746 0.027351 0.040405 51350
-0.012052 0.018283 -0.032924 51350
-0.017857 0.179411 -0.030254 51350
0.044318 -0.060315 0.086075 51350
-0.076369 -0.030385 -0.187111 51350
0.077065 -0.027849 0.062845 51350
-0.037548 -0.063269 -0.190308 51350
-0.045748 0.075677 0.113110 51350
0.034983 0.134754 0.052009 51350
0.012824 0.072019 0.068256 51350
-0.055919 -0.069162 -0.018095 51350
-0.042057 -0.145518 0.054028 51350
0.139140 -0.114385 0.081037 51350
0.042011 0.237173 -0.013289 51350
0.033179 0.210300 -0.053342 51350
0.220688 0.131051 0.150880 51350
0.088010 0.170592 0.097943 51350
0.080890 -0.190863 -0.063672 51350
0.052184 0.204352 -0.048105 51350
0.051671 0.263115 0.022634 51350
-0.090580 0.010090 -0.074722 51350
-0.117575 -0.049891 -0.019536 51350
-0.211403 -0.158433 -0.042663 51350
0.046938 -0.113718 0.008558 51350
-0.101303 -0.081062 -0.069555 51350
-0.015222 -0.209719 0.032977 51350
0.098588 0.033054 0.042928 51350
0.069144 -0.228992 0.070373 51350
-0.132780 0.056804 0.062918 51350
0.051662 -0.056475 0.072873 51350
-0.073239 -0.017871 -0.041535 51350
-0.026500 -0.053873 0.070711 51350
-0.122141 -0.142496 -0.018770 51350
0.196149 -0.018896 -0.062992 51350
-0.010641 -0.134191 -0.006191 51350
-0.117691 -0.204186 -0.085254 51350
-0.079540 -0.118298 0.017743 51350
0.104055 0.114348 0.198600 51350
0.009460 0.247495 -0.003726 51350
0.063287 0.197892 -0.062399 51350
0.017161 0.003577 0.028252 51350
-0.046525 0.051405 -0.087363 51350
0.038605 -0.016116 -0.071841 51350
0.161601 0.125643 -0.002439 51350
-0.013848 -0.067257 -0.024921 51350
-0.047805 -0.011212 0.076681 51350
0.041596 0.082853 0.024982 51350
0.023287 -0.059048 0.034626 51350
-0.038516 -0.115219 -0.019048 51350
-0.048214 -0.013750 -0.042834 51350
-0.034950 0.110326 -0.052320 51350
0.036334 0.136733 -0.061701 51350
0.065248 0.143746 0.109991 51350
-0.042132 0.033219 0.098905 51350
0.046534 0.184258 -0.025423 51350
0.055888 0.034154 0.066255 51350
-0.058390 -0.026461 -0.070501 51350
-0.104487 -0.089082 -0.147921 51350
-0.068221 -0.072824 -0.025752 51350
-0.015200 -0.044391 0.085934 51350
0.125470 -0.057445 -0.012258 51350
0.083930 0.132941 -0.059120 51350
-0.055548 -0.085597 -0.050809 51350
0.001351 -0.192972 0.053045 51350
-0.067569 -0.046450 0.126043 51350
0.072331 -0.038049 -0.096843 51350
-0.031732 -0.053398 -0.006457 51350
0.004143 -0.032373 0.082392 51350
-0.093264 -0.016286 0.165071 51350
-0.061877 0.182585 0.021757 51350
0.008778 -0.155050 -0.059909 51350
0.114085 0.023857 0.205195 51350
-0.129683 -0.127581 -0.076724 51350
-0.154109 -0.074824 0.008301 51350
0.012414 0.023816 -0.130601 51350
-0.041095 -0.033972 0.073406 51350
-0.085150 0.025229 -0.016705 51350
-0.021647 0.042235 -0.068357 51350
0.058092 0.049143 0.033405 51350
-0.006526 -0.105683 -0.066624 51350
-0.031400 -0.036177 0.014575 51350
0.176951 -0.058811 0.092217 51350
-0.054580 0.073489 0.030372 51350
-0.025200 0.094675 0.084093 51350
-0.063455 -0.043620 -0.001403 51350
-0.059329 0.005081 0.173305 51350
-0.001910 -0.050949 -0.098872 51350
0.109169 0.149063 0.086789 51350
0.020027 0.220364 -0.016764 51350
0.069720 0.039643 0.073650 51350
0.045607 0.189451 -0.021573 51350
-0.103824 -0.012883 -0.032751 51350
0.061005 0.017505 0.012174 51350
0.014605 0.091815 0.030070 51350
0.015904 0.044022 0.048002 51350
-0.036804 0.067260 0.127801 51350
-0.003531 -0.158326 0.011248 51350
0.040442 0.094896 0.076221 51350
0.040240 0.080854 0.073890 51350
-0.009255 0.033744 -0.082578 51350
-0.116335 -0.147762 -0.053103 51350
0.060842 0.087731 -0.007274 51350
-0.001464 0.034763 0.124685 51350
-0.001571 0.030144 0.023501 51350
0.087427 0.091383 0.046212 51350
0.035654 -0.051916 0.015044 51350
0.036793 0.107181 -0.043902 51350
-0.019670 -0.107381 -0.099016 51350
-0.014710 -0.085937 0.211054 51350
0.103373 -0.017328 -0.021158 51350
0.014962 -0.199673 0.083865 51350
0.018828 0.093669 -0.066312 51350
-0.016495 -0.001392 -0.067517 51350
0.005512 0.213848 0.116836 51350
-0.139066 -0.219315 -0.019212 51350
-0.124417 -0.014839 0.092072 51350
-0.032756 0.054190 0.014492 51350
-0.043148 0.064048 0.004942 51350
-0.015246 -0.008501 0.156784 51350
-0.084392 0.046952 0.040003 51350
-0.138890 -0.041154 -0.049067 51350
0.084299 -0.288162 -0.071301 51350
0.048696 -0.115505 0.256470 51350
-0.201805 -0.153663 -0.056032 51350
0.072437 -0.062433 0.003056 51350
0.109580 0.239643 -0.023104 51350
0.006156 -0.025859 -0.048322 51350
0.079884 -0.151685 0.047815 51350
0.061274 0.224849 -0.069134 51350
-0.109151 -0.047704 -0.031665 51350
0.031588 -0.006458 0.127099 51350
-0.058531 0.060976 0.043728 51350
0.105869 -0.057236 -0.119769 51350
-0.183805 0.006913 -0.101629 51350
-0.078656 0.034857 -0.020336 51350
-0.084606 -0.188850 0.118722 51350
-0.043482 0.124475 0.013883 51350
-0.023133 -0.046731 -0.018647 51350
0.057438 0.074712 -0.063571 51350
-0.062331 -0.050243 0.024631 51350
-0.061091 -0.042821 0.059487 51350
-0.072665 -0.114800 0.064817 51350
0.054275 -0.158394 0.097011 51350
-0.106726 -0.049247 -0.022422 51350
0.084097 -0.035598 0.064975 51350
0.107288 0.060544 0.111549 51350
-0.106966 -0.114193 0.001451 51350
-0.028691 0.111724 -0.003316 51350
-0.033146 -0.102361 0.054950 51350
-0.050458 -0.059854 0.069754 51350
-0.084268 0.037801 0.110141 51350
-0.023826 0.219208 -0.019114 51350
0.058314 0.218439 -0.024413 51350
-0.111408 -0.098390 0.022394 51350
-0.022129 0.077919 -0.076750 51350
-0.075569 0.167032 0.137927 51350
0.032478 -0.072562 0.026722 51350
0.117007 -0.056199 -0.011289 51350
0.058537 0.005604 -0.007427 51350
-0.177420 -0.083517 0.004333 51350
-0.110623 -0.076762 0.158661 51350
0.092919 -0.041374 -0.009295 51350
0.013511 0.107779 -0.026943 51350
-0.011649 0.208217 0.028443 51350
0.062677 -0.185565 0.051251 51350
-0.012546 -0.115434 0.144217 51350
-0.115983 -0.097198 0.012545 51350
0.129412 -0.073214 -0.049535 51350
0.180071 0.015278 -0.115334 51350
-0.001219 -0.022771 -0.057584 51350
-0.079173 -0.041977 -0.065446 51350
-0.122491 -0.148418 0.067259 51350
0.001651 -0.000850 -0.004455 51350
0.053722 0.020956 0.084654 51350
-0.004726 0.095016 0.063684 51350
0.033712 0.020842 0.036286 51350
0.035633 0.087733 0.048782 51350
0.033067 0.041576 0.019524 51350
-0.091512 0.135151 -0.227060 51350
-0.008745 0.081875 0.017671 51350
0.013338 0.105784 -0.054558 51350
-0.036817 0.018703 -0.091364 51350
0.037185 0.054615 0.007375 51350
0.051835 0.069626 0.152621 51350
-0.039651 0.160181 0.033440 51350
0.020129 -0.051577 0.002481 51350
-0.144510 -0.054837 -0.032652 51350
0.000988 0.054042 -0.008075 51350
0.100987 -0.132281 0.071797 51350
0.051052 0.108453 0.018990 51350
-0.133726 -0.058909 0.051194 51350
-0.099575 -0.066988 0.060295 51350
-0.098273 0.040524 0.076547 51350
0.020551 -0.125438 0.037218 51350
-0.114066 -0.048927 0.058577 51350
0.036761 0.147125 0.058290 51350
-0.009366 0.136298 0.060558 51350
0.087780 0.032441 -0.001780 51350
-0.044617 -0.028553 -0.083191 51350
-0.018235 0.046992 0.141212 51350
0.083527 -0.084491 -0.050005 51350
-0.097244 -0.012314 -0.003145 51350
-0.139131 -0.026754 -0.082892 51350
0.012396 -0.084642 0.064828 51350
0.063474 0.161804 0.055171 51350
-0.047219 -0.035428 0.052813 51350
-0.044994 0.118288 -0.024183 51350
-0.077483 -0.094634 0.030618 51350
0.059432 -0.170490 0.164524 51350
0.043384 -0.337362 0.104751 51350
0.053271 0.045028 -0.007938 51350
0.107374 -0.020054 0.047423 51350
-0.041604 -0.136136 0.115517 51350
0.140033 -0.033886 -0.010798 51350
0.046771 0.012283 -0.033317 51350
0.034633 0.032250 -0.006166 51350
-0.048767 -0.089310 -0.057105 51350
0.043856 0.180614 -0.012262 51350
0.093959 -0.136707 -0.063248 51350
-0.010968 0.126207 -0.017524 51350
0.035661 0.110024 0.028814 51350
0.068679 -0.047267 -0.011553 51350
0.054521 0.082451 0.072867 51350
0.041187 -0.215351 -0.084503 51350
0.107361 0.094786 -0.014406 51350
0.033518 0.102426 0.030045 51350
-0.015590 -0.002836 0.033765 51350
0.063293 -0.071919 -0.001558 51350
-0.129677 -0.035956 0.107815 51350
-0.097164 0.057503 -0.101415 51350
-0.051190 0.095632 -0.025855 51350
-0.124419 -0.065917 -0.054650 51350
-0.225379 0.029154 -0.156460 51350
-0.179349 -0.231403 0.013632 51350
-0.071427 -0.005454 0.161786 51350
-0.016179 0.129902 0.017380 51350
0.012429 0.051297 -0.022845 51350
0.162939 0.050022 0.012861 51350
-0.038745 -0.028321 -0.060787 51350
0.005003 -0.074411 -0.004075 51350
-0.148614 -0.267931 0.063520 51350
0.058706 -0.149973 0.050690 51350
0.017731 -0.003758 0.001321 51350
0.046152 0.046059 -0.031108 51350
-0.016588 -0.158111 -0.014593 51350
-0.074896 0.042457 -0.046825 51350
-0.022288 -0.145143 0.020724 51350
0.127157 0.129369 -0.082185 51350
-0.100054 -0.107550 -0.078772 51350
-0.026771 0.174344 -0.071517 51350
-0.212253 -0.038711 -0.007783 51350
0.070508 -0.036575 -0.106916 51350
-0.085716 0.080035 -0.102373 51350
-0.177830 0.009536 -0.043404 51350
0.069061 0.248566 0.047418 51350
-0.067408 0.018368 -0.011473 51350
-0.018860 0.058382 0.019355 51350
0.005368 0.071474 0.039242 51350
-0.046803 -0.035583 0.020528 51350
-0.141883 0.057894 -0.038891 51350
0.088736 0.133618 0.049368 51350
-0.012598 -0.047101 0.035919 51350
0.045881 0.092653 -0.066891 51350
-0.021964 -0.079183 0.041349 51350
-0.019030 -0.109754 -0.047215 51350
-0.020520 -0.092192 0.080063 51350
0.071739 -0.069422 -0.091152 51350
0.072472 0.150628 0.068395 51350
-0.059518 0.063957 0.235020 51350
0.019830 0.059879 0.146330 51350
0.004300 0.139141 0.001454 51350
-0.100665 0.091850 -0.085820 51350
0.090478 -0.171140 0.009901 51350
-0.042628 0.164362 0.029133 51350
-0.021063 -0.120918 0.069321 51350
-0.010278 -0.133170 -0.027470 51350
0.086812 0.014622 0.023474 51350
-0.025677 -0.147348 -0.007558 51350
0.006811 0.043402 -0.031457 51350
-0.029973 0.038068 0.063542 51350
-0.029481 0.034870 -0.023180 51350
-0.084573 0.096145 -0.082807 51350
0.110655 -0.081012 0.177901 51350
-0.083196 -0.001859 -0.083079 51350
-0.014619 -0.173925 0.082828 51350
-0.029093 -0.190636 0.011302 51350
0.200715 -0.078086 -0.012293 51350
0.033743 0.041699 0.012741 51350
-0.108026 0.062242 -0.017889 51350
0.024907 -0.007632 -0.109577 51350
0.088122 -0.012564 -0.131955 51350
-0.017200 0.058421 0.043738 51350
-0.027371 -0.089202 0.073385 51350
0.014927 0.081952 0.052950 51350
0.085006 0.020207 0.047869 51350
0.168228 0.115709 0.044857 51350
0.008814 0.007487 0.127615 51350
-0.033793 -0.106194 0.087133 51350
-0.060827 -0.111974 -0.110009 51350
-0.139460 -0.157398 -0.162717 51350
0.074969 -0.200546 0.036448 51350
-0.021713 0.109837 -0.095541 51350
-0.042869 0.139423 -0.016058 51350
0.022624 0.078456 0.052171 51350
0.067200 0.051557 0.047953 51350
-0.002044 -0.086649 0.159934 51350
0.031107 0.175811 -0.054421 51350
0.090445 0.005960 0.152248 51350
0.042950 -0.055351 -0.063417 51350
0.014700 -0.036777 0.073557 51350
-0.041256 -0.087973 0.124493 51350
-0.008396 -0.075628 0.096321 51350
-0.068766 0.039426 0.083063 51350
0.037293 -0.057928 -0.029764 51350
0.113816 -0.008702 -0.003514 51350
-0.090225 -0.051541 -0.053080 51350
0.045231 0.085904 0.012579 51350
-0.056037 -0.003991 0.230672 51350
-0.097259 -0.066451 0.149003 51350
-0.086389 -0.043165 -0.108463 51350
-0.001516 0.101631 -0.022776 51350
0.005584 -0.147117 0.137029 51350
-0.002812 0.008241 -0.001668 51350
0.061477 0.220050 0.010758 51350
-0.028961 -0.060110 -0.093569 51350
0.131411 -0.118355 -0.061654 51350
0.034911 0.036835 -0.053056 51350
0.104879 0.133123 0.021715 51350
0.011347 0.224834 0.022886 51350
0.017785 -0.088131 0.056576 51350
-0.058720 0.037444 0.070593 51350
-0.118299 -0.013882 -0.082853 51350
0.076769 -0.020464 -0.004553 51350
-0.073418 0.196851 0.102710 51350
0.033520 -0.013177 0.018922 51350
0.022795 -0.051563 0.076743 51350
0.075261 -0.232018 0.118450 51350
-0.029740 -0.039064 0.009522 51350
0.047044 0.162593 0.074998 51350
0.041504 0.041341 0.086195 51350
-0.026942 -0.186971 -0.048616 51350
-0.082469 -0.105967 -0.011649 51350
-0.130090 -0.060826 0.020597 51350
-0.130454 -0.037633 0.111434 51350
0.014637 0.152314 0.046134 51350
0.012519 0.094864 0.067165 51350
0.048097 -0.099912 -0.101346 51350
-0.057204 -0.164902 0.133609 51350
0.179196 -0.125133 0.079709 51350
0.019223 -0.098829 -0.030009 51350
0.189892 0.155934 -0.123398 51350
-0.008583 0.089901 0.109774 51350
0.038254 0.027636 -0.101036 51350
0.106730 0.129264 -0.057118 51350
-0.079756 0.124487 -0.033008 51350
-0.146687 -0.048476 0.115564 51350
-0.168605 -0.093959 0.011036 51350
-0.036867 -0.032270 -0.019640 51350
-0.028416 -0.025146 0.051635 51350
0.089552 0.011061 0.065280 51350
0.045702 0.185204 -0.020491 51350
0.011873 0.195419 -0.023587 51350
-0.007000 -0.014230 -0.020107 51350
0.059705 0.145496 0.015615 51350
-0.055184 0.073667 0.038643 51350
0.020178 0.027603 0.026403 51350
0.057132 -0.024178 0.000746 51350
0.032250 0.220317 0.039624 51350
-0.015903 -0.016094 0.040213 51350
0.094027 0.084032 -0.138423 51350
0.110961 -0.078249 0.022519 51350
0.058272 0.181753 0.053166 51350
-0.126547 -0.110701 -0.010635 51350
0.029050 -0.000648 0.005345 51350
-0.036581 0.112020 0.133941 51350
0.028855 0.137973 -0.083259 51350
0.017260 -0.029864 0.028651 51350
-0.041372 -0.151061 0.116995 51350
-0.036591 -0.008325 0.067440 51350
0.061722 0.139472 0.057964 51350
-0.018438 -0.037137 0.013852 51350
-0.106045 0.024772 -0.081209 51350
0.033793 0.061964 -0.000554 51350
0.007517 0.055610 0.029464 51350
0.151041 0.181307 0.023851 51350
-0.042415 -0.042944 -0.087080 51350
-0.090557 -0.011677 -0.131903 51350
0.009412 0.169959 -0.046461 51350
-0.000974 0.144834 -0.031973 51350
0.016785 0.083256 -0.057264 51350
0.024050 0.106976 -0.042195 51350
0.066132 0.112254 0.058385 51350
0.026521 0.088512 0.071638 51350
0.091709 -0.004951 -0.065052 51350
0.074330 -0.024818 -0.050964 51350
0.005682 0.060409 0.032952 51350
0.001924 -0.102208 -0.073940 51350
0.217915 0.180791 -0.037148 51350
0.013784 -0.014720 0.044070 51350
0.083031 0.055159 0.029975 51350
0.075447 0.056870 -0.031303 51350
-0.004876 -0.144177 0.094926 51350
-0.077528 -0.140861 -0.078649 51350
-0.091563 -0.025226 0.065502 51350
-0.080211 -0.060885 0.142620 51350
0.082420 -0.080077 0.038221 51350
-0.098093 -0.008468 -0.004007 51350
0.049746 0.122524 0.115136 51350
0.065200 0.071415 -0.092423 51350
-0.037734 -0.069019 0.051777 51350
-0.082069 -0.104506 -0.083916 51350
-0.126936 -0.231342 0.092670 51350
-0.075900 0.204479 -0.016286 51350
0.008270 0.002616 -0.053575 51350
-0.010371 -0.244577 0.023294 51350
0.022120 -0.087050 0.041729 51350
0.020923 0.172395 -0.006841 51350
0.116071 0.106798 -0.028806 51350
0.046548 0.165844 -0.064481 51350
0.083286 0.141504 0.136422 51350
0.084983 -0.079538 0.006201 51350
-0.063205 -0.100885 -0.083238 51350
-0.012599 -0.005154 0.027097 51350
0.073554 0.151882 0.048653 51350
-0.014756 -0.050214 -0.061617 51350
-0.079905 0.019675 0.134984 51350
-0.126179 0.026233 -0.075481 51350
-0.056147 -0.173208 -0.040029 51350
-0.090174 -0.198687 0.021253 51350
-0.025810 -0.156578 0.032070 51350
0.009646 0.030864 -0.077829 51350
-0.070666 0.057248 0.071870 51350
-0.047804 -0.087794 0.052175 51350
0.160137 0.113968 -0.014764 51350
0.074611 0.034339 -0.022486 51350
-0.053114 -0.019233 -0.090525 51350
-0.094119 -0.085459 0.027620 51350
0.000719 -0.020566 -0.001618 51350
0.091163 0.149066 0.091435 51350
0.016936 -0.026630 0.052941 51350
-0.034849 -0.085340 -0.052115 51350
-0.001200 -0.040066 -0.004659 51350
0.042752 -0.008656 -0.050460 51350
-0.032289 -0.082008 0.099118 51350
-0.059588 0.074429 -0.099304 51350
-0.046348 -0.011820 -0.047820 51350
-0.032896 -0.075011 0.012886 51350
0.046329 0.209977 -0.003670 51350
0.004504 -0.112148 0.064547 51350
-0.057372 -0.043205 0.091940 51350
-0.006172 -0.079978 0.083518 51350
-0.027625 -0.088298 0.045464 51350
0.008808 -0.081460 0.022069 51350
-0.071387 -0.233563 0.031738 51350
0.076319 0.159292 0.048254 51350
-0.080552 -0.093499 0.127294 51350
-0.014356 -0.032498 -0.086360 51350
0.035936 -0.124863 -0.048264 51350
-0.029875 -0.074537 -0.092691 51350
-0.054876 0.090730 0.257297 51350
-0.039302 -0.005948 -0.092565 51350
-0.094510 0.158914 0.060769 51350
0.074139 0.060091 -0.059338 51350
0.094853 0.123250 -0.011001 51350
-0.092942 -0.031727 -0.035348 51350
0.045979 0.081197 -0.004858 51350
0.040984 -0.101169 0.111137 51350
0.005025 0.055992 0.080849 51350
-0.014426 0.050955 0.048200 51350
0.096159 0.058996 0.198417 51350
-0.070376 0.032786 0.089922 51350
-0.149464 -0.139507 -0.087218 51350
-0.044379 0.293251 0.038627 51350
0.082984 0.112109 -0.034619 51350
-0.007825 -0.036622 -0.047692 51350
0.070387 -0.026602 0.047060 51350
-0.000016 0.070734 -0.010305 51350
-0.250047 -0.077485 0.038934 51350
0.044807 -0.002411 0.013551 51350
0.034883 -0.150035 0.063617 51350
0.111027 -0.071779 -0.078439 51350
0.063954 0.046758 -0.023822 51350
0.000752 -0.246575 0.052717 51350
-0.082984 -0.185521 -0.025059 51350
0.183367 -0.093671 0.044885 51350
0.022733 -0.068040 -0.057054 51350
-0.001519 0.020673 -0.123427 51350
-0.045460 0.213231 -0.073264 51350
-0.059904 0.026033 -0.062731 51350
-0.037696 -0.037078 -0.019822 51350
0.108322 0.002277 -0.032573 51350
0.002462 -0.074956 0.001500 51350
0.117403 0.003719 -0.033855 51350
0.081269 -0.105548 0.039043 51350
-0.033721 0.038950 0.056456 51350
-0.030159 0.119920 -0.120077 51350
0.032397 -0.086854 -0.013180 51350
0.058061 0.019308 0.100471 51350
-0.027318 -0.031697 -0.066728 51350
-0.034265 0.086363 0.084223 51350
-0.017854 -0.110016 0.019721 51350
0.090972 0.208764 0.002840 51350
0.032890 0.209719 -0.030517 51350
0.061175 0.158474 -0.129853 51350
0.008540 -0.008861 0.007813 51350
-0.058440 -0.008261 -0.082286 51350
0.007948 -0.065739 -0.067199 51350
-0.035308 0.127014 0.017358 51350
-0.032427 0.028200 -0.032482 51350
0.056148 -0.070185 0.065935 51350
0.034999 0.007779 0.037730 51350
0.052091 0.022718 -0.033465 51350
0.080993 -0.046628 -0.014090 51350
-0.033147 -0.124641 -0.048377 51350
-0.103639 -0.111583 -0.027837 51350
-0.027935 -0.089188 0.131604 51350
0.323681 0.169295 0.027168 51350
0.039454 0.050893 -0.133373 51350
0.025111 0.119101 -0.106863 51350
0.077636 -0.045597 0.040991 51350
-0.048760 -0.059826 0.037068 51350
0.107930 0.076784 0.085087 51350
0.022038 -0.119130 -0.053897 51350
-0.129122 0.041877 -0.072173 51350
0.107406 -0.024284 0.012038 51350
0.002429 -0.127310 0.003914 51350
0.080927 -0.020262 -0.072520 51350
-0.062987 0.021598 -0.044381 51350
0.052585 0.188856 -0.028277 51350
0.017591 -0.113086 -0.030587 51350
-0.027200 0.128856 0.072855 51350
0.128191 0.258640 0.168784 51350
0.015012 -0.102911 -0.064972 51350
-0.030114 0.120894 -0.123936 51350
-0.064791 0.149876 0.053572 51350
-0.078341 -0.043853 -0.142195 51350
0.054792 0.133190 -0.067096 51350
-0.001817 -0.125110 -0.019592 51350
-0.081906 -0.107850 -0.019297 51350
-0.076449 -0.043708 -0.118124 51350
-0.023641 -0.000454 0.013224 51350
-0.039513 0.064441 0.118334 51350
-0.027157 -0.257650 0.005859 51350
0.074881 0.177896 -0.048173 51350
-0.026897 -0.106271 -0.142549 51350
0.071733 0.129231 -0.062821 51350
0.042431 0.146131 0.127267 51350
-0.001311 0.094369 0.007274 51350
0.011944 0.040049 0.156666 51350
-0.121163 -0.063968 -0.011555 51350
0.033578 -0.075895 -0.051832 51350
0.121813 0.109669 -0.103920 51350
0.032487 0.230970 0.041519 51350
-0.029703 0.221721 -0.058106 51350
0.012749 -0.010291 0.035837 51350
0.247338 0.154250 0.002621 51350
-0.080114 -0.014999 0.068486 51350
-0.026636 0.126248 -0.022338 51350
0.081810 0.198849 -0.075163 51350
-0.058160 -0.035736 -0.066374 51350
-0.140347 -0.077185 -0.038999 51350
-0.048448 0.084671 0.001613 51350
-0.047180 -0.029126 0.119499 51350
0.056210 0.073641 -0.029215 51350
0.016242 0.105289 -0.041790 51350
-0.081530 -0.022426 -0.004197 51350
-0.036868 0.226439 -0.018466 51350
-0.062957 -0.025424 -0.053781 51350
-0.120457 0.070958 0.171880 51350
-0.106152 -0.042638 0.014946 51350
-0.010535 -0.023288 -0.110316 51350
-0.090167 0.055079 -0.160324 51350
0.081768 0.123980 -0.038280 51350
-0.009495 0.105087 0.007310 51350
-0.074766 -0.158242 0.092491 51350
-0.032140 0.285781 -0.190426 51350
0.080100 0.024594 0.030084 51350
-0.057535 0.028783 -0.021305 51350
-0.031845 0.124726 -0.046017 51350
-0.019811 0.010030 0.036772 51350
-0.173753 -0.165491 0.033424 51350
-0.005145 0.035804 0.010270 51350
0.069323 -0.052323 0.078076 51350
-0.114836 -0.038652 -0.023555 51350
0.076697 0.134338 -0.062556 51350
-0.013172 -0.124825 -0.049127 51350
0.073150 0.024485 0.135060 51350
-0.105028 0.092286 -0.098511 51350
-0.062499 0.159680 0.044215 51350
-0.053901 -0.124752 -0.025782 51350
0.015652 -0.041292 -0.050768 51350
0.081618 0.063335 -0.131007 51350
0.065954 -0.193862 0.084034 51350
0.229232 -0.006344 0.011035 51350
-0.012670 0.024230 -0.002263 51350
-0.043303 0.010845 -0.006521 51350
-0.088706 -0.047176 0.097389 51350
-0.006611 -0.147196 0.051286 51350
0.059215 0.220547 -0.036969 51350
-0.014542 0.074705 0.080005 51350
-0.205972 -0.073840 -0.072938 51350
0.055961 0.146382 0.022920 51350
0.057859 0.039961 -0.138603 51350
-0.051449 0.009409 0.081927 51350
0.078382 -0.143609 0.036802 51350
0.006674 -0.107700 0.069178 51350
-0.066508 -0.093708 -0.026809 51350
0.105308 0.170181 0.022961 51350
-0.049862 -0.030374 -0.039017 51350
0.107486 0.115910 0.078546 51350
0.191402 0.012454 0.177316 51350
0.063173 0.007251 -0.170955 51350
0.090077 -0.027890 -0.054535 51350
0.036222 0.016163 0.013746 51350
-0.070833 0.026328 -0.051895 51350
-0.001848 -0.034717 0.028390 51350
0.106607 -0.113884 0.068445 51350
-0.092887 -0.173013 0.005674 51350
0.114793 0.047697 0.030491 51350
0.275529 0.182737 -0.007890 51350
-0.103234 -0.030079 -0.132984 51350
0.088736 0.011500 0.030759 51350
-0.008127 -0.081213 -0.012510 51350
0.040713 -0.059415 0.010061 51350
0.041144 0.121641 -0.099317 51350
0.006565 -0.197776 0.012113 51350
-0.020717 -0.074560 0.153119 51350
-0.105101 0.031313 -0.078299 51350
0.055455 0.061136 -0.000490 51350
-0.109823 -0.039460 0.017041 51350
-0.019670 -0.053344 0.088022 51350
-0.025971 -0.181115 -0.061499 51350
-0.098340 0.046112 0.063065 51350
0.069687 0.157715 -0.040710 51350
-0.034622 -0.128593 0.057703 51350
0.039961 0.276189 0.056725 51350
-0.011035 -0.053586 0.121606 51350
0.019964 -0.165133 0.039160 51350
0.028717 0.038023 -0.153614 51350
0.001620 0.025998 0.147711 51350
-0.127882 -0.293117 -0.056756 51350
-0.020064 -0.165485 0.013159 51350
-0.041938 0.144191 0.055839 51350
0.053292 -0.047712 -0.098237 51350
-0.107290 -0.125038 -0.002331 51350
0.074418 0.119506 0.056596 51350
0.060564 0.042205 -0.017893 51350
-0.026162 -0.332663 0.049491 51350
-0.068219 -0.207381 0.035943 51350
0.028435 -0.081699 0.070486 51350
-0.007945 0.007969 -0.052770 51350
0.023733 -0.103820 -0.005994 51350
-0.054695 0.115777 -0.236335 51350
-0.018997 0.029782 -0.026098 51350
-0.077661 0.079673 0.007732 51350
-0.034894 0.019432 0.233512 51350
0.064926 0.146227 -0.023726 51350
-0.068041 0.122082 0.001733 51350
0.015663 0.028560 -0.004200 51350
0.051447 0.001205 -0.069026 51350
0.017997 0.044545 0.030387 51350
-0.049186 -0.051281 -0.123891 51350
-0.024427 -0.073109 0.056230 51350
0.107826 0.141306 -0.047716 51350
-0.044273 -0.079889 0.032191 51350
0.066311 0.075277 -0.034162 51350
0.200063 0.231379 0.121708 51350
-0.071175 -0.064022 -0.051958 51350
-0.037265 0.053840 -0.021556 51350
-0.001489 0.041286 -0.040884 51350
0.042252 0.180258 0.069135 51350
0.021637 -0.263091 0.101891 51350
0.001180 -0.278002 0.087067 51350
-0.002651 -0.087672 0.058075 51350
0.065944 0.097975 -0.039908 51350
0.034211 0.054040 0.130626 51350
0.003973 -0.046238 0.252573 51350
-0.000695 -0.060377 -0.030881 51350
-0.040695 -0.260653 -0.048664 51350
-0.038709 -0.289561 0.015896 51350
-0.073239 0.166926 0.072141 51350
0.098051 0.105052 0.015071 51350
0.039062 0.161888 -0.095037 51350
-0.084583 -0.037687 0.086073 51350
0.093416 0.065041 0.038057 51350
0.044340 0.187885 -0.011409 51350
0.061756 0.168687 0.017288 51350
-0.202486 0.027240 0.055072 51350
-0.041101 -0.076579 -0.000534 51350
0.066271 0.045387 0.048934 51350
-0.011730 0.033067 -0.019199 51350
-0.018843 -0.079896 0.117852 51350
-0.050390 -0.050337 -0.034872 51350
-0.082394 0.040558 -0.116727 51350
-0.107556 -0.166055 0.009217 51350
-0.031404 -0.102612 0.033790 51350
0.058050 0.063860 0.073711 51350
0.087678 -0.137294 0.054241 51350
0.066710 -0.090075 0.010746 51350
0.163402 0.066788 -0.056259 51350
-0.024481 0.034199 -0.037681 51350
0.014931 -0.064810 0.006010 51350
-0.059723 -0.073479 0.041530 51350
-0.101290 0.016570 0.052450 51350
-0.101125 -0.052349 0.152262 51350
0.035069 -0.050009 0.052046 51350
0.129590 -0.014744 -0.066035 51350
-0.051068 -0.095719 -0.038740 51350
-0.067701 -0.045184 -0.059722 51350
0.085493 -0.005895 -0.014513 51350
0.080333 -0.095990 -0.079066 51350
0.045709 0.102270 0.069342 51350
-0.015230 0.176264 -0.197285 51350
0.035794 0.081611 0.140686 51350
-0.080609 -0.119188 -0.087651 51350
0.036303 0.110928 0.037912 51350
0.027293 0.071406 -0.098215 51350
0.045870 -0.208458 0.039733 51350
0.104382 -0.071335 0.026724 51350
0.108720 0.000890 0.014301 51350
-0.056277 -0.053124 -0.048155 51350
-0.020377 0.092864 0.045686 51350
0.122493 0.122187 -0.069304 51350
0.078807 0.020158 -0.030311 51350
-0.044980 0.038041 0.163326 51350
-0.120491 0.019945 0.008041 51350
0.016553 -0.180192 0.018550 51350
0.121665 -0.096338 0.001672 51350
-0.104079 -0.054707 -0.072737 51350
0.016344 0.162153 -0.013841 51350
-0.034119 -0.012714 0.059947 51350
-0.018364 -0.204747 0.031647 51350
0.074368 0.222640 0.000273 51350
-0.066317 -0.078459 0.012814 51350
-0.072985 -0.054000 0.042275 51350
0.010960 -0.149877 -0.101664 51350
-0.076557 -0.014293 0.068812 51350
0.063013 -0.010601 -0.015897 51350
-0.075567 -0.128157 -0.001257 51350
-0.006675 0.097695 0.021008 51350
-0.021880 -0.075819 0.007489 51350
-0.155545 0.051557 -0.097305 51350
-0.061360 -0.121538 -0.012578 51350
0.110491 0.134063 0.106411 51350
0.149259 -0.023427 0.046189 51350
-0.044548 0.213101 0.070583 51350
-0.014412 -0.020640 -0.108072 51350
0.101107 -0.010294 0.056926 51350
-0.099895 0.013464 0.023310 51350
-0.006570 0.000802 0.058410 51350
0.097357 -0.071269 0.006775 51350
-0.063987 0.073866 0.051652 51350
-0.019202 -0.097443 0.012646 51350
0.031061 -0.204237 -0.087903 51350
-0.044747 0.076245 -0.064955 51350
-0.042089 -0.179452 -0.018416 51350
0.014553 -0.037171 0.071402 51350
0.035349 -0.182274 -0.011846 51350
0.091973 0.139658 0.004042 51350
0.087422 0.010186 -0.077994 51350
0.033135 0.234588 -0.045255 51350
-0.048176 -0.086536 -0.046692 51350
-0.084693 0.104627 0.034101 51350
-0.048694 0.019033 -0.055052 51350
0.020322 0.000749 0.127829 51350
-0.032392 -0.061143 0.028074 51350
-0.073527 -0.110229 -0.152431 51350
-0.010907 0.149759 0.087093 51350
0.110420 0.057450 -0.025785 51350
-0.158825 -0.131732 0.145218 51350
-0.211544 0.034559 -0.188819 51350
0.081072 0.108604 -0.062614 51350
0.039198 0.078015 0.101526 51350
-0.233996 -0.059558 -0.027605 51350
0.033751 0.067016 -0.040158 51350
-0.136119 0.001529 0.057738 51350
-0.060852 -0.116859 -0.052115 51350
-0.126483 -0.107669 0.020154 51350
-0.150802 0.166449 -0.005474 51350
-0.132058 -0.100558 0.071517 51350
-0.135891 -0.101288 -0.144658 51350
-0.189598 -0.207974 0.033852 51350
-0.021849 -0.053819 -0.136845 51350
0.047861 0.169203 0.056181 51350
0.041998 0.004482 0.006287 51350
-0.083920 -0.063174 0.071603 51350
0.119607 -0.066172 0.040028 51350
-0.145187 0.045987 -0.112058 51350
-0.005031 -0.104900 -0.014100 51350
-0.054347 -0.059541 -0.013144 51350
0.134073 0.009509 -0.157356 51350
-0.012673 -0.115034 0.043976 51350
0.046866 0.109922 0.017922 51350
-0.047423 0.093978 -0.031689 51350
0.073847 0.210134 -0.097491 51350
0.049145 -0.046084 0.118639 51350
0.074675 0.039722 -0.017617 51350
0.216974 0.128542 0.108083 51350
0.064947 -0.051837 0.010422 51350
-0.015168 -0.204463 0.045326 51350
0.114318 0.005649 0.105194 51350
0.001892 0.040550 0.075251 51350
-0.055751 -0.109421 -0.025901 51350
0.074671 0.024011 -0.039619 51350
0.003515 -0.050832 -0.064154 51350
0.011847 0.053682 0.005226 51350
0.004345 -0.098069 -0.079334 51350
-0.077742 0.117353 0.068375 51350
-0.085532 0.027997 0.053231 51350
0.040647 0.139028 0.018868 51350
0.054249 0.118760 0.029837 51350
0.126863 0.050677 -0.086146 51350
-0.033084 0.148507 0.145938 51350
-0.062020 0.090677 0.056448 51350
0.129182 -0.115362 0.032572 51350
-0.120132 0.174396 -0.072304 51350
-0.123669 -0.189672 -0.017990 51350
0.087148 0.101833 -0.053151 51350
0.058026 0.106015 0.055212 51350
-0.032576 -0.142989 -0.071238 51350
0.028013 -0.133640 0.006293 51350
0.110408 0.094461 -0.067598 51350
-0.066808 -0.085730 -0.110783 51350
0.034600 -0.056729 0.016049 51350
0.023899 0.052867 -0.027398 51350
0.021126 0.065753 0.079571 51350
0.044091 0.178333 0.041746 51350
0.041257 0.240641 0.055176 51350
0.043285 0.191158 0.034343 51350
-0.115867 -0.190429 -0.029229 51350
-0.029832 -0.023925 0.031565 51350
0.051640 0.144100 -0.037585 51350
0.266168 0.120649 -0.048451 51350
0.053585 -0.011821 -0.043660 51350
-0.009874 -0.132236 0.074037 51350
0.044253 0.216998 -0.144476 51350
-0.010197 -0.136108 -0.107608 51350
0.133587 -0.137989 -0.020992 51350
-0.054956 0.072236 0.060119 51350
-0.100590 0.194328 -0.040383 51350
-0.034841 -0.053472 0.031772 51350
-0.099809 -0.068000 -0.078074 51350
0.012235 -0.069753 -0.018781 51350
-0.052710 -0.049585 -0.027917 51350
-0.044902 0.046409 0.072305 51350
-0.010139 0.130216 -0.049458 51350
0.041694 -0.001618 0.053049 51350
-0.056553 -0.066329 -0.075686 51350
0.004860 -0.074251 -0.050066 51350
-0.076111 0.005738 -0.025922 51350
0.055047 0.129804 0.087913 51350
0.029264 -0.182878 0.052751 51350
-0.071782 -0.039788 -0.053222 51350
-0.034019 0.072899 0.056416 51350
0.108915 0.059151 -0.007027 51350
-0.033842 -0.181136 0.195534 51350
0.109905 0.020930 -0.082938 51350
0.045116 -0.242479 0.021311 51350
0.099769 0.187709 -0.059910 51350
0.080504 -0.097386 -0.020703 51350
-0.028718 -0.004361 0.063179 51350
0.122451 0.159250 0.106491 51350
-0.063823 0.069074 -0.071481 51350
-0.039681 0.113006 -0.042096 51350
0.002374 0.170087 0.120672 51350
-0.087753 -0.038284 0.010555 51350
-0.004974 -0.019891 0.049658 51350
0.199942 0.154880 0.140240 51350
-0.040126 0.014932 0.056024 51350
0.055601 0.104728 -0.091216 51350
0.068655 -0.198043 0.054097 51350
0.081321 -0.095964 -0.001034 51350
0.035094 0.189618 0.015870 51350
0.071067 -0.229043 0.038478 51350
0.097125 -0.012095 0.141990 51350
-0.023434 -0.139607 0.052508 51350
-0.007468 0.000769 -0.089222 51350
0.041760 0.039431 -0.091121 51350
-0.131781 0.047843 -0.072711 51350
-0.060649 -0.263656 0.053407 51350
0.063334 -0.037274 0.003609 51350
-0.227856 -0.147009 -0.034222 51350
0.071404 -0.024373 -0.204064 51350
0.021996 -0.014139 0.014302 51350
0.098445 0.109507 -0.044027 51350
0.020754 -0.124562 0.108877 51350
-0.050013 -0.039979 0.143151 51350
0.035337 -0.074971 -0.045189 51350
0.056938 0.212514 0.040434 51350
0.026435 0.102805 -0.091050 51350
-0.205407 -0.001816 -0.057895 51350
0.065052 0.015298 0.001550 51350
0.052814 0.039534 -0.040249 51350
0.059645 -0.061140 0.143398 51350
-0.033262 0.053546 0.080696 51350
0.077666 -0.232955 -0.182641 51350
0.071313 -0.085592 0.031509 51350
0.095310 0.018074 -0.060568 51350
-0.051574 0.057198 0.132098 51350
-0.021738 0.095274 -0.035157 51350
0.000318 0.040139 -0.015089 51350
0.105361 0.105487 0.088433 51350
0.071950 0.171428 -0.081718 51350
-0.046320 -0.241630 0.047665 51350
0.082642 -0.054315 -0.053599 51350
-0.078433 0.105579 -0.114068 51350
0.131805 -0.041129 0.079987 51350
0.030738 -0.093511 0.129760 51350
-0.159731 -0.240045 0.085852 51350
-0.061469 -0.137128 0.006119 51350
0.053852 0.013501 -0.141269 51350
-0.001209 0.155889 0.041020 51350
0.037308 -0.099905 0.032796 51350
0.044803 -0.055433 -0.124678 51350
0.100756 0.047153 0.113748 51350
0.003810 0.185356 -0.048581 51350
0.006361 0.073603 0.054026 51350
0.035816 -0.018839 -0.094096 51350
-0.043988 -0.026922 0.005552 51350
-0.074005 -0.064869 0.202056 51350
-0.131999 -0.023429 -0.094024 51350
0.074495 -0.046553 0.055081 51350
-0.076682 -0.051063 -0.087543 51350
-0.096170 0.000825 -0.051066 51350
0.036638 -0.027711 -0.026100 51350
-0.052040 0.243058 -0.009129 51350
0.146627 -0.061902 0.011163 51350
0.069733 0.013080 -0.082863 51350
-0.075739 0.200053 -0.030158 51350
-0.096669 -0.131882 -0.039075 51350
-0.006253 0.116257 -0.040396 51350
0.092701 0.085647 0.062085 51350
-0.212725 -0.155377 -0.023235 51350
0.062045 -0.056881 -0.053237 51350
-0.020532 0.115311 -0.030014 51350
-0.083194 -0.149880 -0.020341 51350
0.132193 0.240782 0.050486 51350
0.106105 0.104264 -0.156567 51350
0.038139 0.111559 -0.120990 51350
-0.076085 -0.001565 -0.018137 51350
0.099920 -0.034422 -0.024429 51350
-0.126784 -0.190755 0.078025 51350
-0.015477 0.025669 -0.164377 51350
0.202980 -0.072044 0.024823 51350
0.050746 -0.066879 0.084094 51350
-0.015684 0.148128 0.031616 51350
0.016137 0.131138 0.027575 51350
-0.183843 -0.146120 -0.041752 51350
-0.085783 -0.001107 -0.058211 51350
-0.062275 0.049913 0.187699 51350
0.000047 -0.045103 0.098759 51350
-0.027022 -0.107698 0.078246 51350
0.028984 0.137169 0.023972 51350
0.171984 -0.084699 -0.002255 51350
-0.058431 -0.125140 -0.125807 51350
0.262325 0.004479 -0.039577 51350
-0.051427 -0.065500 -0.020547 51350
-0.044672 -0.049117 0.054991 51350
-0.018504 0.164594 -0.021534 51350
0.012043 -0.202030 -0.008843 51350
-0.023893 0.038274 0.078390 51350
0.039282 -0.107757 -0.011079 51350
-0.011288 -0.145400 0.044818 51350
0.013440 -0.018683 0.062681 51350
-0.059650 0.039220 -0.039529 51350
0.031736 -0.163431 0.126199 51350
-0.020890 0.086807 0.054632 51350
-0.002945 0.165000 -0.015128 51350
0.107314 -0.031526 -0.018357 51350
-0.053519 -0.151911 -0.040903 51350
0.007448 -0.248578 0.005457 51350
0.005145 0.107527 -0.031568 51350
0.072790 -0.282913 0.084174 51350
-0.039957 0.080356 -0.063380 51350
-0.078542 -0.115580 0.026170 51350
0.058916 -0.012875 0.079267 51350
-0.021317 -0.260436 0.001897 51350
0.003702 0.068155 0.004044 51350
-0.053286 -0.072056 -0.013559 51350
0.098057 0.011091 -0.129330 51350
0.023786 -0.022018 -0.064033 51350
0.014067 -0.009210 0.015886 51350
-0.063319 0.000785 0.095979 51350
-0.030265 -0.246230 0.083790 51350
0.006610 0.189127 0.018855 51350
-0.031990 -0.003879 -0.015175 51350
0.005967 -0.017892 0.102044 51350
-0.034087 0.065493 -0.001892 51350
-0.100523 0.031775 0.064567 51350
-0.186642 0.050199 -0.007936 51350
-0.015455 -0.074674 -0.124756 51350
0.006806 0.078940 -0.014471 51350
-0.037456 -0.065720 0.080650 51350
0.076798 0.089347 -0.024405 51350
-0.014096 0.011523 -0.020087 51350
-0.101002 -0.086221 0.090176 51350
-0.072757 0.082399 -0.016688 51350
0.250148 0.313662 -0.006264 51350
0.013261 0.199509 -0.001574 51350
0.050478 0.099878 0.020177 51350
0.126377 0.236397 -0.094344 51350
-0.195339 -0.074576 -0.236393 51350
0.020508 -0.011768 0.224013 51350
-0.068732 0.069288 0.039027 51350
0.050899 0.014237 0.017730 51350
0.032089 0.051196 -0.104724 51350
0.131241 0.097008 -0.015865 51350
0.026685 0.022043 -0.085370 51350
-0.111919 -0.054900 -0.081348 51350
0.038365 0.141935 -0.078835 51350
0.062649 0.080337 -0.133352 51350
-0.038485 -0.067930 -0.191040 51350
0.057696 0.065606 0.081674 51350
-0.068891 -0.058130 -0.083348 51350
-0.018636 -0.016615 -0.065160 51350
0.033142 -0.040721 -0.154722 51350
-0.255248 -0.077991 -0.015518 51350
0.075159 0.160426 -0.031077 51350
0.042483 -0.049326 0.069249 51350
0.006009 0.077833 0.063866 51350
-0.039015 0.118051 0.074353 51350
-0.025063 0.032746 0.103362 51350
0.020104 0.183456 0.018282 51350
