VERSION .7
FIELDS x y z rgb
SIZE 4 4 4 4
TYPE F F F U
COUNT 1 1 1 1
WIDTH 1384
HEIGHT 1
VIEWPOINT 0 0 0 1 0 0 0
POINTS 1384
DATA ascii
-0.635853 0.054012 -0.566371 52304
1.079609 0.009253 0.699985 50256
0.458662 -0.149116 0.952487 42832
0.104508 0.000947 0.803403 49744
0.517864 -0.098085 -0.489464 45392
0.789297 -0.090188 -0.732552 45648
-0.140232 -0.096304 -0.085522 45392
-0.544643 0.039893 -0.612380 51536
0.784976 0.102891 -0.206132 54608
-0.300949 -0.131073 -0.442563 43856
-1.054688 -0.067845 -0.549766 46672
-0.715938 -0.081215 -0.039789 46160
-0.964228 -0.059595 -0.168801 47184
0.861475 0.130739 0.268030 55888
-0.155292 -0.069840 0.064874 46672
0.377353 0.164462 0.215586 57424
-0.123988 -0.063742 -0.159467 46928
-0.933852 -0.064067 -0.072376 46928
-0.196606 0.125960 -0.946668 55632
-1.012650 -0.091113 -0.534761 45648
-0.378341 0.193744 1.156689 58704
1.156129 -0.032799 -0.133516 48208
-0.566518 0.285749 1.196931 62800
-0.541446 -0.041096 0.446158 47952
1.154599 0.088366 -0.935245 53840
-1.030023 0.012547 -1.097875 50256
0.138651 0.145863 -0.175257 56400
-0.507715 -0.096018 0.374110 45392
1.081507 0.018716 0.276885 50768
0.546558 -0.188358 -1.022996 41040
-0.449198 -0.138115 0.040406 43344
-1.175558 -0.009054 0.333469 49488
0.292534 -0.052548 0.610209 47440
-0.894099 -0.109416 -0.361575 44880
0.295543 -0.063310 -0.960220 46928
-0.508431 -0.079185 0.329932 46160
-0.471765 0.318435 1.041653 64336
1.090785 0.030947 0.120577 51280
1.130855 0.079242 1.091076 53328
-1.005991 -0.004977 -0.764182 49488
-1.172098 0.079930 0.126347 53328
0.241935 -0.038845 -0.911020 47952
-0.109202 0.038196 0.911917 51536
0.366216 -0.100273 1.122701 45136
0.091786 0.028868 1.144259 51024
-0.239686 0.115039 1.075093 55120
-0.953479 -0.049592 0.567086 47440
-1.027987 -0.009151 0.917256 49488
-0.931003 0.083842 -1.046910 53584
-1.098237 0.008939 1.089600 50256
-0.282431 -0.018166 0.642998 48976
-0.727244 -0.075062 -0.142386 46416
0.400335 0.128318 -0.257470 55632
-0.108965 -0.058420 -0.407512 47184
0.836796 -0.046666 0.663307 47696
0.591147 -0.116646 0.603549 44368
0.463124 -0.147237 -1.163626 43088
-0.374047 0.195473 1.050629 58704
-0.709200 -0.080852 -0.171984 46160
0.420455 -0.185523 -1.112177 41296
-0.618000 0.262860 -0.928977 61776
-0.158347 -0.091904 0.282473 45648
0.617061 -0.105582 0.540295 44880
0.754097 0.089641 0.241497 53840
-0.058812 0.017863 0.926489 50512
0.885687 0.035651 -0.394331 51536
1.105694 0.103088 1.112213 54608
-1.051544 -0.075226 0.456569 46416
-0.534550 0.004710 -0.534928 50000
-1.065905 -0.011721 0.864703 49232
0.616416 0.112859 -0.250430 54864
-0.750162 -0.060006 -0.149088 46928
-0.885372 -0.064871 -0.630218 46928
0.574047 -0.091965 -0.504455 45648
-0.214819 0.067133 -0.773214 52816
-0.946008 0.026993 1.196631 51024
-0.242517 -0.132937 0.002880 43600
-0.933086 0.063160 1.117103 52560
0.854399 0.197008 0.053184 58704
-0.029981 0.029586 0.838867 51024
0.317463 0.020392 0.522443 50768
-0.007142 0.086789 0.072490 53840
0.416677 -0.006794 -0.420768 49488
0.202467 -0.001575 -0.906737 49744
0.471453 -0.151359 0.680709 42832
-0.141613 -0.071568 -0.591226 46416
0.077039 0.005862 1.159582 50000
-0.586820 -0.118005 0.181515 44368
-0.211534 -0.122488 0.304584 44112
-1.061695 -0.007447 -0.952866 49488
-0.540825 0.129747 0.771829 55632
-0.812354 -0.091380 -0.281217 45648
-0.295543 0.128838 -0.863580 55632
-0.639140 0.258132 -1.195038 61520
-0.653844 -0.090797 0.115616 45648
-0.121330 -0.030576 -0.678943 48464
-0.777924 0.035107 0.652461 51280
0.153482 -0.004310 0.622165 49488
-0.363006 -0.154426 0.348089 42832
0.954639 -0.019256 0.582126 48976
0.189946 -0.003967 -0.564532 49488
-1.067179 -0.075891 -0.663762 46416
-0.445986 0.180586 0.812372 58192
0.826316 -0.021162 0.637834 48720
1.039738 0.027870 -0.734924 51024
-0.288851 -0.144308 0.359025 43088
-0.844612 -0.068866 -0.194219 46672
1.028685 0.075630 0.874141 53328
-0.552470 -0.116594 0.272213 44368
1.124329 0.030159 -0.070224 51280
-1.107981 0.009714 0.232234 50256
0.630046 -0.205399 -1.112849 40272
-0.002086 0.032324 -1.164995 51280
1.104858 -0.006554 -0.675837 49488
-0.680686 -0.025753 -0.527462 48720
-0.360481 -0.147786 -0.003468 43088
-0.991744 -0.039595 0.201999 47952
0.100232 -0.026596 0.667995 48464
-0.509203 -0.064109 -0.345642 46928
-0.200318 -0.149874 -0.277145 42832
0.350414 -0.116491 0.624948 44368
-0.289687 0.144388 0.947129 56400
-0.560454 -0.005286 -0.467477 49488
1.179124 0.112003 1.144697 54864
-0.648135 -0.065283 0.426432 46672
-1.043140 0.025469 -0.961699 51024
-1.116676 -0.014198 -0.254415 49232
-0.511196 0.098647 0.649796 54352
-0.514970 -0.079416 0.142330 46160
0.794063 -0.079993 -0.784212 46160
-0.115215 0.059043 -1.135705 52560
-0.624579 0.198466 0.766542 58960
0.326175 0.065228 -0.354238 52816
1.051124 0.101654 1.091241 54352
0.995543 0.033850 -0.840261 51280
-0.183046 0.090900 1.055624 53840
1.197782 -0.072793 -0.243727 46416
-1.056746 -0.002531 -0.923106 49744
0.086926 -0.040014 -0.604428 47952
-1.181672 -0.002968 0.361509 49744
0.648229 -0.072110 0.543288 46416
1.067731 0.062974 -0.096256 52560
-0.078278 -0.091580 0.419231 45648
-0.971370 0.017091 1.119104 50512
-0.145868 -0.116910 -0.469692 44368
-0.718962 -0.099076 0.099888 45136
-0.651640 0.059870 -0.676996 52560
-0.970591 -0.081939 0.558419 46160
0.199025 0.052580 -0.449109 52304
0.366720 0.238369 0.017213 60752
-0.884594 -0.017636 0.696955 48976
1.179071 0.047272 -0.814773 52048
-1.077275 0.011558 0.251341 50256
-0.732783 0.181245 0.857965 58192
0.482003 -0.142026 0.729792 43344
0.821817 0.022429 0.350466 50768
0.263061 -0.042405 0.725447 47952
0.598635 0.174274 0.066791 57680
-1.128195 -0.011865 -1.099688 49232
0.005815 -0.038631 0.404240 47952
0.201357 0.045395 0.406574 51792
0.464689 -0.036860 0.430433 48208
-1.045245 0.013129 0.136161 50512
0.204161 0.209380 -0.068928 59472
-1.094060 -0.053566 0.727616 47440
-1.177932 0.136921 0.042164 56144
-0.912365 0.083761 -1.198243 53584
0.817789 -0.057479 1.104304 47184
-0.233384 -0.146885 -0.082988 43088
-0.483625 -0.012204 0.466593 49232
-0.595102 -0.108109 0.021272 44880
-0.783887 -0.075854 -0.366641 46416
-0.145010 -0.121614 -0.377515 44112
0.736374 0.052586 -0.353677 52304
0.144948 0.144757 0.154664 56400
-1.198125 -0.023738 -0.438566 48720
0.437788 0.233949 -0.065466 60496
-0.874112 0.047309 -0.845288 52048
0.001985 -0.021435 -0.710645 48720
-0.897497 0.017249 -0.722011 50512
0.223968 -0.065673 -0.766187 46672
0.142620 0.002966 -0.542871 50000
0.163423 0.055222 -0.359955 52304
0.117017 -0.002536 1.128491 49744
0.324757 0.243329 0.010059 61008
0.213954 -0.022886 1.046960 48720
-0.362873 -0.090651 -0.480354 45648
-0.929363 -0.105285 0.251429 44880
-1.168841 0.093852 -0.190678 54096
1.036740 0.082980 0.941021 53584
0.979681 -0.001109 0.753952 49744
-0.082382 0.042581 -1.104800 51792
0.568135 -0.145753 -0.702593 43088
-0.494694 -0.093746 0.082500 45392
1.048647 0.039428 -0.265233 51536
1.137286 0.047195 -0.863583 52048
-0.727193 -0.102042 -0.279737 45136
0.727317 0.012520 -0.336673 50256
-0.054332 -0.084364 -0.522431 45904
-0.542165 -0.093592 -0.258493 45392
-0.162741 -0.107560 -0.604434 44880
0.407278 -0.161299 -1.030905 42320
-0.792736 0.168232 1.195203 57424
0.316387 -0.052752 -1.092303 47440
0.173883 -0.035192 -0.644201 48208
0.488437 -0.189656 -0.867684 41040
-0.707700 0.199325 1.046006 58960
-0.223561 -0.137783 -0.453970 43344
0.070344 0.046004 0.272616 51792
0.440336 -0.167930 -0.763861 42064
-0.217637 0.085895 0.948482 53840
-0.583400 0.208593 0.823912 59472
0.580116 0.182820 -0.028389 58192
-0.186875 -0.146343 0.329048 43088
0.729993 -0.095057 0.556884 45392
-0.505216 0.280931 1.086423 62800
-0.716783 0.238091 -1.090694 60752
-0.473182 -0.129722 0.176606 43856
0.009130 -0.015123 0.794476 48976
-1.130414 -0.037290 -0.760825 48208
0.326977 -0.107921 0.868560 44880
-0.740089 0.113807 0.734499 55120
-0.355595 -0.152322 -0.076924 42832
-0.858564 -0.096505 0.545903 45392
0.720285 -0.048093 -0.458872 47696
-0.767871 0.121443 0.751428 55376
-0.091713 0.044060 1.043431 51792
1.114376 0.084750 0.803207 53584
-0.642946 0.222953 -0.861710 59984
0.977858 -0.018452 -0.766260 48976
-0.981943 -0.089921 -0.440182 45648
0.702667 -0.163499 0.836751 42320
-0.249359 -0.098918 -0.513854 45136
0.292702 -0.070304 0.686232 46672
-0.215661 -0.123246 0.355627 44112
0.437920 -0.187198 -1.169786 41296
-0.007072 0.043542 0.952568 51792
0.356986 0.036372 -0.372278 51536
-0.863037 -0.096275 0.399265 45392
-0.144479 -0.006274 -0.775981 49488
-0.837531 0.086332 0.853990 53840
-0.305219 0.170458 1.071662 57680
-0.045906 -0.031938 -0.244911 48208
-0.999004 -0.067016 0.047204 46672
-1.068323 0.049240 0.029038 52048
0.487665 -0.187751 1.033344 41296
0.850364 -0.041712 -1.175317 47952
-1.011134 -0.062529 0.653329 46928
1.147211 -0.019165 -0.597320 48976
-0.366201 -0.141261 -0.160655 43344
-1.032355 -0.061770 0.733108 46928
-0.292265 -0.156115 -0.149460 42576
-0.169246 0.091260 -1.064281 54096
0.773983 0.000271 -0.399782 49744
-1.082996 -0.013470 0.274769 49232
-0.270975 -0.170298 -0.323227 42064
0.724216 -0.143422 0.969619 43088
-0.604736 0.276336 1.179494 62544
0.496933 -0.219771 -0.733415 39760
1.081141 0.089156 -1.050200 53840
-0.350851 -0.050872 -0.564647 47440
-0.687564 -0.083704 -0.097502 45904
0.118244 0.050758 0.847512 52048
0.631157 -0.101765 -0.536876 45136
1.002171 0.006369 0.441020 50000
0.208649 0.018574 -0.476700 50768
0.071458 0.001529 1.189165 49744
0.841404 0.044100 -0.370612 51792
-0.373229 0.204394 -1.089009 59216
-1.136601 -0.027706 1.097648 48464
0.399429 -0.192551 -0.909919 41040
1.081513 0.069831 0.853230 53072
-1.160201 -0.077166 0.576560 46160
-0.879095 -0.113681 -0.349012 44624
-0.967047 -0.008192 0.874621 49488
-0.298026 -0.119865 0.352899 44368
1.046508 0.037760 0.287434 51536
0.516770 -0.002375 -0.421376 49744
1.086799 0.072317 0.003203 53072
-1.114762 -0.071000 -0.470484 46416
-0.529288 -0.096756 0.325764 45392
-0.476505 0.263552 0.943974 61776
-0.719351 -0.061072 -0.200476 46928
1.064106 0.014754 0.597619 50512
-0.798096 -0.035344 0.565110 48208
-1.048350 -0.038174 -0.231488 47952
-0.352042 -0.112801 0.277681 44624
0.349721 0.189236 0.187771 58448
-0.450691 0.273327 1.149661 62288
0.214142 -0.031804 0.840066 48208
1.047957 0.058528 1.173688 52560
-0.052309 -0.088583 -0.371858 45648
-1.183104 0.111852 0.038003 54864
0.338065 -0.104524 -0.817451 44880
0.096390 0.015743 -0.880989 50512
-0.473354 -0.060039 -0.464769 46928
0.806576 -0.023050 -0.520497 48720
-0.052243 0.008177 -0.111174 50256
0.093615 0.000529 -0.682698 49744
0.962978 0.096139 0.233479 54096
-0.188216 -0.137569 -0.537128 43600
0.534891 -0.205634 1.099748 40272
-0.755405 -0.008604 -0.562715 49488
1.011433 -0.002530 0.725814 49744
-0.592132 0.246370 -0.923163 61008
-0.934970 -0.061396 0.030219 46928
0.475830 -0.180116 0.932989 41552
0.798911 -0.096808 0.856167 45392
-0.675608 0.255413 -1.102806 61520
-1.059941 -0.065102 0.344647 46928
0.147591 -0.035307 0.730602 48208
-0.519523 -0.074013 -0.252706 46416
1.064671 0.092895 -0.101975 54096
0.980614 0.054392 0.829152 52304
-0.200150 0.064548 -0.825644 52816
1.085687 0.078600 -1.161528 53328
0.962847 0.105579 -0.243321 54608
0.025470 0.084127 -0.177258 53584
-0.432439 -0.109399 -0.177269 44880
0.642350 0.120683 0.148988 55376
-1.188796 0.078455 -0.336126 53328
0.543585 -0.214398 1.081669 40016
-0.429158 0.197034 1.164781 58704
-0.337204 -0.177473 0.176648 41552
0.051457 0.117445 -0.041804 55120
-0.843293 -0.036055 0.516979 48208
1.003451 0.047508 0.295951 52048
0.674588 -0.163414 1.011409 42320
1.156911 -0.075017 -0.506351 46416
-0.051711 0.037362 0.998766 51536
-0.179718 -0.104251 0.342175 45136
0.937981 0.139214 -0.128385 56144
-0.550345 -0.073242 -0.085972 46416
-1.004229 -0.085609 -0.345593 45904
0.935052 0.000273 0.588741 49744
0.601882 0.181644 0.007384 58192
0.139570 -0.008699 0.501771 49488
1.031822 0.050482 0.257301 52048
0.705747 -0.098828 0.542660 45136
0.366365 -0.005163 0.480978 49488
1.128148 0.128035 1.021424 55632
0.892842 -0.039622 -0.694360 47952
-0.320588 0.104707 -0.819676 54608
-0.264357 0.124228 0.923921 55376
-0.996886 -0.065749 -0.514162 46672
0.340554 -0.011520 -0.465432 49232
0.672880 -0.169233 -0.800476 42064
-0.355884 -0.009104 -0.581831 49488
0.650531 -0.010892 0.383551 49232
-0.563752 0.247166 0.859615 61008
0.223350 -0.038195 -1.162919 47952
-0.126022 -0.017670 0.792833 48976
0.197031 0.025874 0.521459 51024
0.416238 -0.153352 0.767807 42832
-0.358714 0.009417 0.661117 50256
-0.827741 -0.062217 -0.560240 46928
0.329087 -0.119077 -1.070508 44368
-0.468731 0.243837 -0.920041 61008
-0.238091 -0.114291 -0.101925 44624
-0.286232 -0.022467 0.629521 48720
0.747998 0.001100 0.399606 49744
0.922920 0.003390 1.080065 50000
-0.497294 0.057028 -0.659885 52304
-0.822300 0.066474 -0.765175 52816
0.869940 -0.018972 0.876048 48976
-0.547151 0.049770 0.572062 52048
0.394170 0.080369 0.330771 53584
-1.039514 -0.011625 -0.257398 49232
-1.125588 -0.088820 0.629481 45648
0.999276 0.043371 -0.794987 51792
0.635904 -0.176081 -1.021886 41808
0.797281 0.028998 -0.366373 51024
0.348980 0.195545 0.218347 58704
0.283619 0.198858 -0.149311 58960
0.611770 -0.183951 -1.088280 41296
-0.771352 0.197707 1.181783 58960
0.644954 0.115258 -0.275308 55120
0.768912 0.032203 -0.375011 51280
0.247853 0.169197 0.198254 57424
-0.854247 0.117423 0.917576 55120
0.065879 0.052709 0.960224 52304
-0.635560 0.298593 0.968171 63568
-1.057646 0.016701 -0.209828 50512
0.700607 -0.080369 -0.528496 46160
0.508103 -0.141317 -0.845595 43344
0.034294 0.077182 0.015634 53328
-0.889518 0.058381 -0.817977 52560
0.198857 -0.017489 -1.057199 48976
0.208111 0.067958 0.401347 52816
0.122768 0.181654 -0.038273 58192
0.187464 0.044296 -0.359613 51792
-0.058938 0.082013 0.962460 53584
-1.062652 -0.080832 -0.572594 46160
-1.155939 -0.040095 -0.602914 47952
-0.916595 -0.085412 0.214321 45904
-0.241812 -0.156074 -0.230225 42576
-0.320533 0.115931 -0.807368 55120
0.253862 0.191337 -0.184269 58448
-0.488192 -0.110221 0.196435 44624
0.911214 0.102507 -0.259712 54608
0.774139 -0.085090 -1.001700 45904
-0.038846 0.062297 1.199268 52560
-0.307006 0.045058 -0.730536 51792
-0.277354 -0.062373 0.395076 46928
1.143429 0.095697 -1.024664 54096
0.108902 0.024780 0.730572 51024
-0.249980 0.089226 0.819307 53840
-0.600626 0.271569 1.084449 62288
0.160413 0.005176 0.927572 50000
0.500646 0.152998 0.187427 56912
-0.165627 0.094448 -0.930799 54096
-0.913741 -0.102418 -0.375346 45136
-0.864981 0.107170 1.198472 54608
-0.518220 0.155099 0.740567 56912
-1.024286 -0.117926 0.638036 44368
-0.363111 0.192579 -1.185756 58704
0.387223 -0.149840 0.986766 42832
0.712071 0.194043 -0.022523 58704
0.877394 -0.011356 0.669268 49232
0.033413 0.032860 -0.286724 51280
0.244712 0.036290 -0.358068 51536
-1.182334 -0.006326 -0.395750 49488
0.842115 0.201315 0.064148 58960
-0.034450 -0.021447 0.395382 48720
0.057700 0.009029 0.398496 50256
0.697663 -0.071851 -0.553946 46416
-0.325436 -0.134312 0.259494 43600
0.333444 0.232130 -0.065470 60496
0.555023 -0.184682 -0.750460 41296
-1.130455 0.071526 -0.153075 53072
-0.224811 0.101166 1.016204 54352
-0.082205 -0.027482 0.709787 48464
0.801001 -0.080893 -0.906883 46160
0.563045 -0.034925 0.412253 48208
0.158610 0.037864 1.196583 51536
-0.897595 -0.045669 0.613305 47696
-1.065321 -0.085362 -0.658988 45904
-0.526478 -0.015720 -0.496048 48976
1.081153 0.019208 0.287309 50768
0.844719 0.111821 0.227644 54864
-0.690364 0.230270 -1.171559 60240
-0.206431 -0.084279 0.490717 45904
0.791385 -0.082950 0.961334 45904
1.099768 -0.019680 0.359492 48976
0.682828 -0.171236 0.981981 42064
-0.015608 0.050529 0.909529 52048
0.169087 0.153230 0.135780 56912
0.767136 -0.109517 -0.723777 44880
-0.714366 0.213794 0.858188 59472
-0.198821 -0.107633 -0.312680 44880
-0.840820 -0.073329 0.045878 46416
-0.650349 0.263208 1.048029 61776
-0.079373 -0.083639 -0.215151 45904
-0.768359 0.195866 1.065976 58704
-0.947861 -0.102558 0.511003 45136
-0.204464 -0.117832 0.483989 44368
0.250695 0.028987 0.508043 51024
0.201266 -0.060882 -0.814604 46928
-0.849554 -0.109866 0.185486 44624
0.299350 -0.087669 -0.840430 45648
-0.417870 -0.100218 -0.341066 45136
0.671083 -0.179932 -1.058649 41552
-1.063541 -0.034519 0.375013 48208
-0.921833 -0.103601 -0.358531 45136
-0.235089 -0.125929 0.436238 44112
0.644434 -0.189057 0.987123 41040
0.959267 0.039943 -1.064127 51536
0.162380 0.202884 0.073740 59216
-0.911033 -0.088967 0.073309 45648
-0.784946 -0.032633 -0.584943 48208
-0.718957 -0.070922 0.362462 46416
0.430261 -0.032182 0.482151 48208
1.136629 -0.049038 -0.207519 47440
-0.401884 -0.114180 -0.146094 44624
-1.145034 -0.071519 -0.578843 46416
0.638042 -0.149131 0.855803 42832
-0.006078 -0.014887 -0.431935 49232
-0.186985 -0.133008 0.499684 43600
-0.058169 0.079397 0.987258 53328
-1.026582 -0.017902 -0.861985 48976
0.781355 -0.051810 -0.613110 47440
1.151590 0.008273 -0.641987 50256
-1.192160 -0.043694 0.555483 47696
-0.509544 0.027362 0.565699 51024
-0.880470 -0.092417 -0.489743 45648
-0.525117 -0.113171 -0.063841 44624
-0.171585 -0.000530 -0.751801 49744
-0.757319 0.115984 0.722140 55120
-1.079387 0.012119 1.139042 50256
-0.367137 0.112336 -0.720731 54864
-0.715508 -0.024957 -0.543575 48720
0.491161 0.082149 -0.290300 53584
1.035448 0.009609 0.326527 50256
-0.391155 -0.164991 -0.185075 42320
0.889723 0.062945 0.326738 52560
0.422617 -0.158812 1.191471 42576
-0.514210 -0.114806 0.124245 44624
-0.190060 0.102461 1.136394 54608
-0.124945 -0.096249 0.270675 45392
-1.194414 0.110998 0.058983 54864
-0.288137 -0.150162 0.325294 42832
0.975282 0.143992 0.144991 56400
0.907482 0.157516 -0.099153 56912
1.019350 0.106178 -0.130715 54608
0.674806 0.187651 -0.005453 58448
0.070761 0.095795 -0.135919 54096
0.549224 -0.074563 0.495067 46416
-0.965748 -0.107040 0.432031 44880
0.668019 -0.182520 1.059335 41296
0.809304 -0.041359 0.698227 47952
-0.460953 0.299374 1.083811 63568
0.221686 -0.033289 -0.543663 48208
-1.180359 0.028414 0.405846 51024
-0.848839 0.086080 0.840761 53840
1.059333 0.058667 -1.106307 52560
-0.685014 -0.049931 -0.009295 47440
0.977779 -0.026344 -0.570145 48464
-0.264898 -0.152744 -0.261209 42832
0.928217 0.000109 -1.126174 49744
-0.651499 -0.088219 0.136074 45648
0.444927 0.177227 0.238912 57936
-1.019862 -0.091236 0.733523 45648
-1.067270 0.001961 0.097833 50000
-0.336095 -0.097301 -0.460449 45392
0.454068 0.240894 -0.113129 60752
0.046675 0.114346 -0.000408 55120
0.863165 -0.044298 -0.988184 47696
-0.601818 -0.046831 -0.445205 47696
0.578586 -0.209240 1.181022 40272
0.600966 -0.204620 -0.971715 40528
0.488261 0.049488 0.329884 52048
-0.452194 0.058618 0.640848 52560
0.002747 -0.045901 -0.453590 47696
-0.663667 -0.059792 -0.386737 46928
-0.802851 -0.137915 0.273555 43344
-0.878515 -0.054241 0.652164 47184
-0.149880 -0.072358 0.576720 46416
0.660283 -0.219307 1.015365 39760
0.138093 0.001515 -0.607615 49744
-0.339799 0.214087 -1.072380 59728
1.186652 -0.068390 0.395977 46672
-1.122950 -0.010415 -1.131763 49232
-1.114876 0.050320 -0.170606 52048
-0.499733 0.255081 -1.006539 61520
-1.062300 -0.101802 -0.473788 45136
-0.985157 0.053828 -0.992887 52304
-0.181773 0.115897 1.118215 55120
-0.245817 -0.148935 -0.453558 43088
-0.597293 0.096328 -0.663542 54096
0.464856 -0.164455 -1.104657 42320
0.676840 -0.148858 1.048026 43088
0.717955 -0.166902 -1.162228 42064
0.712957 0.030362 0.359870 51280
-0.744982 0.206181 -0.909241 59216
0.148619 0.026495 0.391422 51024
1.129633 -0.006005 0.675071 49488
-0.383688 -0.112039 -0.459612 44624
-0.280776 -0.106501 -0.588610 44880
-0.214059 0.055162 0.864204 52304
-0.086239 0.073513 -1.121810 53072
0.294336 -0.048368 -1.056439 47696
0.693456 -0.141888 -1.188308 43344
0.200920 -0.000869 0.960176 49744
-0.494761 -0.094524 0.165806 45392
0.461792 -0.220294 -0.880860 39760
0.662348 0.101035 0.232886 54352
0.008725 -0.045036 -0.439706 47696
-0.390643 0.223881 -0.969293 59984
0.025747 -0.040573 0.588164 47952
-0.353644 -0.135851 0.365088 43600
0.281407 -0.049194 -0.862308 47440
-0.225512 -0.175795 -0.343323 41808
0.480385 -0.099972 -0.524493 45136
0.938567 0.037242 -1.099602 51536
0.454239 -0.162291 -0.941986 42320
0.054701 -0.030123 0.881142 48464
0.000612 0.036190 -0.887530 51536
0.501765 -0.174431 1.085723 41808
-0.176488 0.056828 -0.848543 52304
0.641839 0.082902 0.287547 53584
-0.416014 0.072463 -0.696876 53072
-0.775935 -0.078099 -0.479445 46160
-0.770204 -0.106416 -0.316881 44880
-1.128880 -0.028641 0.413565 48464
0.268540 -0.052542 -1.190098 47440
0.044327 0.059143 -1.071922 52560
-0.330337 -0.149192 0.003734 42832
0.962792 0.023943 -1.179471 50768
0.614341 -0.164388 -0.721930 42320
-0.003642 0.008326 -0.830850 50256
-0.220973 -0.040760 -0.216512 47952
0.938923 -0.002944 0.690308 49744
-0.524416 0.321855 -0.993021 64592
-0.637239 -0.090823 -0.221088 45648
0.790283 0.168152 -0.019574 57424
-0.050944 0.088637 -1.074512 53840
0.711859 -0.150211 -0.916186 42832
0.870054 0.184060 0.153153 58192
-0.081399 -0.028279 -0.722773 48464
1.185767 -0.041882 0.504722 47952
0.493882 -0.189689 0.982604 41040
-0.936183 -0.089817 -0.120602 45648
-0.232922 0.125474 1.063565 55632
-0.477986 -0.070322 -0.508768 46672
-0.160954 -0.040488 0.626523 47952
-0.058212 -0.070873 -0.661594 46416
-0.084587 -0.007132 0.743674 49488
-0.912492 -0.097026 0.404797 45392
0.251502 0.243069 0.094156 61008
-0.198912 -0.102498 -0.169112 45136
-0.724928 0.239715 1.108449 60752
0.522530 0.006434 0.394667 50000
0.743525 -0.104016 0.856951 45136
1.085886 0.055573 -0.725045 52304
-0.252515 -0.184921 -0.151302 41296
0.075803 0.024899 -0.928500 51024
-0.540275 0.274540 1.137110 62288
-0.415552 -0.024219 -0.557235 48720
0.894189 0.002058 0.419180 50000
0.539553 0.076280 -0.270915 53328
-0.102204 -0.015321 0.676624 48976
0.835928 0.065218 -0.397657 52816
0.884785 -0.049211 -0.610188 47440
-0.086457 -0.003250 -0.752026 49744
0.738401 -0.153204 0.691081 42832
0.602888 0.219750 0.003623 59984
-1.187158 -0.056872 0.922811 47184
0.251830 -0.093131 -0.807562 45392
-0.030704 0.050406 0.121613 52048
-0.480494 0.041413 0.599557 51792
0.065926 0.048901 1.010817 52048
-0.786556 -0.096891 0.331665 45392
0.723905 -0.165740 1.068500 42064
0.338257 0.234792 -0.165542 60496
0.529312 -0.185966 1.003696 41296
-0.224516 -0.148711 0.278881 43088
0.990059 0.026641 -0.299281 51024
1.152360 0.020731 0.032136 50768
-0.139398 -0.072441 -0.003199 46416
-0.916503 0.050024 -0.986734 52048
-1.144479 -0.004931 -0.921938 49488
-0.828144 -0.114816 -0.320243 44624
-0.299330 0.083165 -0.736755 53584
0.744717 0.169867 -0.094611 57680
0.313854 -0.100449 -1.025794 45136
-1.075945 -0.086743 0.664167 45904
0.830980 -0.031107 1.057781 48464
0.926388 0.033307 -0.966386 51280
-0.826043 -0.033165 -0.684985 48208
-0.160981 -0.008497 0.749776 49488
-0.873911 -0.072523 -0.319189 46416
1.173243 0.088421 -0.808563 53840
0.057456 0.115102 0.056606 55120
-0.509252 0.276276 -0.890861 62544
-0.029158 -0.006585 -0.669430 49488
-0.574039 0.045918 0.599432 51792
0.127924 -0.030239 -0.582890 48464
1.042256 0.135120 -0.060713 55888
0.190470 0.001245 -0.622950 49744
0.920967 0.100652 -0.233932 54352
-0.466785 0.271082 1.072494 62288
-1.104703 -0.037311 0.379132 47952
1.065307 -0.021921 -0.544115 48720
0.157274 0.000107 0.491568 49744
-0.847534 -0.084890 0.149428 45904
-0.558855 -0.099567 -0.158721 45136
0.613996 -0.135496 0.620285 43600
-0.016179 -0.045811 -0.588656 47696
-0.526285 -0.034085 0.501685 48208
-0.722853 0.202383 -1.168681 58960
0.134323 -0.015253 0.694633 48976
-0.764130 -0.109514 0.141239 44880
-0.314513 -0.057034 -0.603465 47184
0.228919 -0.051181 -0.737922 47440
-0.207687 -0.121161 -0.433909 44112
0.149015 -0.021245 0.783181 48720
0.206519 -0.022845 -0.552021 48720
1.114250 0.047992 -0.735534 52048
0.108509 0.023754 -1.010215 50768
0.441877 -0.141670 -0.878095 43344
-0.532437 0.296704 1.006622 63312
1.057441 0.045497 -0.808171 51792
-0.020954 -0.026308 0.661156 48464
-0.610287 -0.089462 -0.205757 45648
0.511246 -0.215145 1.190300 40016
0.340094 -0.089756 -0.904195 45648
-0.658239 0.273564 0.952215 62288
0.259294 -0.060728 0.855893 46928
-0.677739 0.163497 -0.740512 57168
0.536606 -0.165941 0.856135 42064
-0.848669 -0.101602 0.497014 45136
0.777486 0.170416 -0.111396 57680
0.262816 0.058105 0.405561 52560
-0.309969 0.181937 1.069345 58192
0.270187 -0.066703 -1.118515 46672
-0.482732 -0.073224 0.382826 46416
-1.092447 -0.045500 -1.138294 47696
-0.282827 -0.140981 -0.427987 43344
-0.175617 -0.062852 0.075246 46928
-0.850185 -0.126448 0.209016 44112
0.251586 -0.020475 -0.663167 48976
-0.958428 0.064252 0.935304 52816
0.502554 -0.181925 1.133328 41552
-0.534443 0.295716 -0.995204 63312
-0.948500 -0.101849 -0.598643 45136
0.096761 0.007667 1.175753 50256
0.411701 0.183415 0.157175 58192
0.632046 -0.132233 0.586818 43600
-1.017647 -0.066909 0.224440 46672
0.277765 0.277286 0.034466 62544
-0.585290 -0.056015 0.347268 47184
-0.831923 0.163384 1.001495 57168
0.559087 -0.028866 -0.449863 48464
0.670862 0.122119 -0.222379 55376
-0.645632 0.281449 -1.058570 62800
0.611485 -0.199944 -0.785844 40528
-0.360695 -0.048459 -0.597068 47440
0.275614 0.086890 0.347064 53840
-0.946391 -0.081336 -0.390248 46160
0.350026 0.097762 0.336965 54352
0.017981 0.015043 -0.224800 50512
-1.076402 -0.002381 -0.959848 49744
-0.782685 -0.075531 -0.471082 46416
0.557214 0.196193 0.031121 58704
0.231933 0.121170 -0.293383 55376
-0.348239 0.084503 -0.798102 53584
-0.687133 0.178311 0.813461 57936
0.263845 -0.044652 -0.714360 47696
0.726102 -0.132086 -0.802537 43856
-1.134626 -0.008113 0.360754 49488
0.361969 -0.096280 -0.684972 45392
0.112641 -0.003877 0.744661 49488
-0.773424 0.192343 1.124799 58704
0.602546 -0.178551 0.970696 41552
-1.165916 -0.002039 -0.387338 49744
0.620872 0.158417 0.057406 57168
-0.931705 -0.054273 -0.010194 47184
-1.110496 0.009317 -1.099914 50256
0.727416 -0.108394 -0.600773 44880
0.920685 0.010477 0.870856 50256
-0.865058 -0.049157 -0.625767 47440
-0.827604 0.045683 0.667281 51792
1.144292 0.149366 -1.113714 56656
0.297265 -0.075512 1.074840 46416
-0.553072 -0.090304 0.232524 45648
-0.613145 -0.104330 -0.061541 44880
-0.158438 -0.020099 -0.728563 48976
-0.475746 0.009707 -0.532568 50256
-0.706644 0.048800 -0.656346 52048
-0.409545 0.187882 -0.848191 58448
-0.457783 0.236425 0.954637 60752
0.925010 0.161465 -0.042666 57168
1.114438 0.129391 -1.122538 55632
-0.655921 -0.069609 0.315847 46672
0.984073 -0.004744 -0.584323 49488
-0.202441 -0.103734 0.035383 45136
-0.307310 0.060013 -0.738520 52560
0.274142 -0.006867 -0.477122 49488
-0.596239 -0.052552 -0.443794 47440
-0.529807 0.271475 1.139325 62288
0.217197 0.206958 0.107862 59216
0.139365 0.007151 1.056149 50000
-0.100544 0.076150 1.031133 53328
1.167832 -0.045228 0.022514 47696
1.099850 0.024045 0.082995 50768
0.746495 0.116155 -0.286479 55120
-0.225333 0.053471 -0.838389 52304
-0.649125 0.263642 -1.092439 61776
0.425535 -0.052058 0.506690 47440
-0.648812 0.221307 0.905093 59984
-1.137672 0.036692 0.205841 51536
-0.868072 -0.132986 0.421429 43600
-0.195259 -0.120075 -0.065511 44368
1.112787 0.075674 0.897413 53328
-0.980045 -0.101375 -0.593096 45136
0.599506 0.181533 0.108867 58192
0.804097 0.085276 -0.295808 53584
-0.098686 -0.048065 0.143284 47696
-0.199272 -0.091815 -0.496747 45648
-0.719896 -0.096070 -0.286693 45392
-0.463898 0.274049 1.008323 62288
0.800847 0.155818 -0.032278 56912
1.091250 0.044922 0.847061 51792
0.509487 0.187890 -0.110582 58448
0.360791 -0.125203 0.714699 44112
0.519867 -0.217091 -1.088373 39760
-0.074278 -0.071875 0.557942 46416
-0.937344 0.086414 1.032245 53840
0.752894 0.179295 -0.109236 57936
-0.733269 0.192291 0.857350 58704
-0.352909 0.197751 -1.099180 58960
-0.347887 0.199923 -0.962720 58960
-0.084254 -0.070288 -0.136244 46672
0.576456 -0.172048 0.793327 41808
0.354181 -0.111470 -0.672013 44624
0.501654 0.131651 -0.231797 55888
0.356038 -0.114252 0.831074 44624
0.989292 0.020832 1.194135 50768
-0.446654 -0.120384 0.021906 44368
-0.170005 -0.125056 0.411976 44112
0.528316 -0.073924 -0.486277 46416
0.007801 0.011498 0.280784 50256
1.196216 -0.008389 -0.690436 49488
0.628998 -0.138121 0.608398 43344
0.456126 -0.153694 0.923961 42832
0.537047 -0.172566 -1.123420 41808
-0.482675 0.159055 -0.772731 57168
-0.232211 -0.113030 -0.176125 44624
0.697128 -0.124497 0.595701 44112
0.729692 0.165604 -0.166521 57424
0.984630 0.128588 -0.066994 55632
0.403530 -0.163866 0.817525 42320
-0.279576 0.140766 0.914579 56144
-0.909551 -0.099649 -0.357756 45136
0.482131 -0.197501 -1.148897 40784
-0.983642 0.026222 -1.191261 51024
-0.837840 -0.073706 0.243432 46416
-1.184633 -0.067322 0.971877 46672
1.085909 0.078650 -1.010937 53328
0.015699 -0.004723 -0.868085 49488
-0.457003 0.137094 -0.758142 56144
-0.300612 0.129152 -1.153129 55632
0.620357 0.027616 0.343444 51024
-0.620165 0.279428 1.074666 62544
1.172654 -0.002253 0.660445 49744
0.199491 -0.018617 -0.984715 48976
-0.747824 0.000733 -0.570941 49744
-0.881070 0.027365 -0.805644 51024
-0.957805 -0.092096 0.620905 45648
0.132817 0.061647 0.297246 52560
0.873641 0.202213 0.001747 58960
0.567851 -0.201539 -1.028936 40528
-0.731930 -0.084604 -0.195854 45904
1.127008 -0.007628 -0.260722 49488
0.932320 -0.034915 0.489368 48208
0.456992 0.120860 0.248287 55376
0.877666 0.008839 -1.184076 50256
1.044798 0.049023 0.776099 52048
-0.335883 -0.008016 0.619437 49488
0.487816 0.019113 -0.368987 50768
-0.533407 -0.101763 0.005106 45136
-0.438596 -0.075613 0.477013 46416
0.100514 0.090668 0.242824 53840
0.158474 -0.000049 -0.909142 49744
-1.051068 -0.036949 -0.252771 48208
-1.146347 -0.065896 -0.551238 46672
0.865466 -0.032625 1.199733 48208
-0.133837 -0.106175 0.261334 44880
0.214491 -0.023718 0.539077 48720
0.091166 0.085591 0.178138 53840
0.861647 -0.036919 -0.600765 48208
-0.223924 -0.057227 0.633596 47184
-0.368605 0.023264 -0.675489 50768
1.037589 0.022064 0.679641 50768
0.724848 -0.111932 -0.753805 44624
0.602274 0.118373 -0.250554 55120
-0.511325 -0.021631 -0.527006 48720
0.177978 -0.035495 0.729315 48208
-0.912551 -0.112806 -0.486811 44624
-1.097619 0.028901 0.186791 51024
0.115682 0.001357 0.558946 49744
-0.436314 -0.119099 0.085418 44368
-0.480805 0.237086 1.146130 60752
0.766014 -0.122833 0.984788 44112
0.567472 -0.062980 -0.491845 46928
1.173537 0.097678 1.060832 54352
0.082627 0.043294 -1.129691 51792
-0.864317 0.127938 -0.964020 55632
0.791802 0.081109 -0.333531 53584
-0.460025 -0.145562 0.214827 43088
0.081259 0.048465 -0.321097 52048
-0.671520 -0.098623 -0.169413 45392
0.811055 0.121084 0.198310 55376
0.291958 -0.029247 -0.611182 48464
-0.475087 0.044465 0.654059 51792
0.718816 0.047793 0.355660 52048
-0.497452 0.209653 -0.838683 59472
-0.517105 0.148966 -0.756416 56656
0.726339 -0.162249 -1.181629 42320
-1.155417 -0.050723 0.571908 47440
0.069343 0.121141 0.068444 55376
0.328386 -0.092539 -1.115381 45648
-0.789414 -0.063171 0.206665 46928
0.690646 0.160187 0.023401 57168
-0.633040 0.255270 0.898249 61520
-0.019615 -0.032863 -0.568663 48208
-1.068645 -0.046714 0.312946 47696
1.172200 -0.006924 0.120835 49488
0.108181 -0.043162 -0.545810 47696
0.492654 0.004090 -0.393628 50000
-0.579667 0.068573 -0.643412 52816
0.403640 0.094448 0.316519 54096
0.028563 -0.022061 0.522424 48720
-1.197508 -0.019152 0.977216 48976
0.404952 -0.155961 1.031664 42576
0.928891 0.112776 -0.224422 54864
-1.116229 -0.025617 -0.333505 48720
1.022860 0.019909 0.783188 50768
-0.450893 -0.034199 0.528597 48208
-0.004457 -0.060686 0.608003 46928
-0.949241 -0.051505 -0.014614 47440
1.134439 0.096045 -1.058854 54096
0.733876 -0.105286 0.591674 44880
0.141640 0.112372 -0.209929 54864
0.906606 0.012281 0.979709 50256
1.052059 0.088781 0.847930 53840
0.708608 -0.202148 1.074737 40528
0.734524 -0.152608 -0.973517 42832
0.557471 -0.057436 -0.437970 47184
-0.365354 0.175371 -0.992342 57936
0.229187 0.244660 -0.031495 61008
0.347240 -0.130834 0.862606 43856
0.024954 0.023534 -1.146124 50768
1.045930 0.013032 -0.399103 50512
1.090084 -0.056037 -0.524577 47184
-0.109508 -0.051206 0.306082 47440
1.013742 0.059170 0.839635 52560
-0.643986 -0.084302 -0.193992 45904
1.099487 0.116303 -1.026908 55120
0.420899 0.220884 -0.027874 59984
-0.344948 0.194416 -1.143602 58704
1.032394 0.085952 -1.065201 53840
0.707298 0.121519 0.185515 55376
-0.857045 0.140689 -0.978951 56144
-0.732060 -0.086271 -0.185527 45904
0.694777 -0.138585 0.658352 43344
0.776096 -0.027733 -0.436850 48464
-0.279612 -0.089988 0.526742 45648
1.097934 0.116262 0.895251 55120
0.721868 -0.076941 -0.503156 46160
0.470763 -0.179849 1.101522 41552
0.320931 0.150564 0.269280 56656
0.906045 0.156272 -0.049344 56912
-0.577119 0.089137 -0.613045 53840
-0.428464 -0.123478 0.211583 44112
0.121615 0.037639 -0.369195 51536
0.134317 -0.023902 0.656734 48720
0.264567 0.112799 -0.293361 54864
-0.646769 -0.096658 -0.153949 45392
-0.578659 0.314506 -1.039458 64336
1.031103 0.017965 0.359055 50512
-0.397804 0.254952 1.076864 61520
0.581800 0.143228 -0.139737 56400
-0.373469 -0.141033 0.304679 43344
-0.919045 0.037365 0.891981 51536
-0.322956 0.028399 0.695920 51024
0.920713 0.154255 0.156842 56912
0.332057 -0.103490 0.696730 45136
-0.084018 -0.008758 0.931136 49488
-0.327016 0.085353 0.729419 53584
-0.419856 0.244588 1.081846 61008
0.806966 0.175826 0.142082 57936
-1.125038 -0.034822 -0.991637 48208
0.822882 0.200015 0.022056 58960
0.307368 0.002737 -0.499815 50000
-0.781735 -0.101553 -0.081858 45136
-0.380960 -0.088047 0.190923 45648
0.536596 -0.172488 0.841686 41808
-0.887332 0.046402 -0.791794 51792
1.126712 -0.032041 -0.258487 48208
0.723072 -0.145843 0.844689 43088
-1.044973 0.000300 0.947781 49744
-0.740148 -0.085598 0.087422 45904
0.892153 0.210199 -0.058975 59472
-0.737605 -0.054495 0.500782 47184
-1.025361 -0.009240 0.886891 49488
0.040075 0.087608 0.042406 53840
-0.035087 0.046441 -0.906746 52048
-0.439346 -0.144816 0.299885 43088
-1.168799 -0.015741 -1.076953 48976
-0.917766 -0.018165 0.769309 48976
-1.140900 0.062144 -0.028653 52560
-0.672959 0.267059 0.953530 62032
-0.082728 -0.097577 0.425277 45392
-1.027578 -0.049555 0.347865 47440
1.081394 -0.007420 0.270048 49488
-1.150397 -0.018398 -1.190398 48976
0.914763 0.032992 -0.381107 51280
-0.342160 0.010591 0.672734 50256
-0.536354 0.184375 -0.756912 58192
-1.051876 -0.017252 -0.940735 48976
0.612826 -0.024298 -0.404768 48720
0.599973 0.137150 -0.177191 56144
0.416715 -0.166899 1.097146 42064
-0.381393 0.218592 1.089457 59728
0.742749 -0.075116 0.554561 46416
0.662476 -0.191329 -0.710974 41040
0.473628 -0.179444 -1.148922 41552
-1.180046 -0.003364 0.958416 49744
0.951438 0.018758 0.893393 50768
-0.274047 0.017781 -0.687955 50512
0.681154 0.185100 -0.029820 58192
-1.035727 0.012906 -0.054391 50256
-0.689332 -0.081817 -0.320781 46160
0.359600 0.135222 -0.242091 55888
1.105334 0.080942 0.942274 53584
-1.114382 -0.026454 -0.287282 48464
-0.186562 0.064188 -0.840809 52816
-0.133768 0.054812 1.022341 52304
0.509541 -0.228159 0.985370 39248
-1.172394 -0.048605 0.774651 47440
0.711515 0.061049 -0.305550 52560
0.952179 0.075128 -0.195527 53328
-0.805602 0.176662 0.867083 57936
0.318144 -0.050618 -0.556199 47440
-0.183377 -0.079311 0.015640 46160
1.133257 0.116387 -1.148054 55120
0.678027 -0.177164 -0.843442 41552
-0.339255 -0.071848 0.560193 46416
0.680014 0.170996 -0.203826 57680
-0.259395 -0.121252 0.475237 44112
-1.090787 0.033667 -0.048021 51280
1.009306 0.063624 -0.313383 52816
0.150142 -0.000924 -0.553640 49744
-0.009424 -0.064706 -0.424605 46928
0.930520 0.127313 0.110220 55632
-0.611030 0.014897 0.590635 50512
-0.918136 -0.095052 0.355707 45392
-0.711927 0.004630 -0.538759 50000
0.733126 -0.097477 0.684324 45392
0.942345 0.198088 0.052921 58960
0.900343 0.165518 0.024657 57424
0.116056 0.011448 0.976439 50256
1.193057 -0.046216 -0.304192 47696
0.419187 -0.173493 -1.069803 41808
1.080177 -0.006730 0.424210 49488
-0.725547 0.220837 -1.192062 59984
0.516688 0.178964 -0.073626 57936
-0.601098 -0.094720 0.243717 45392
-0.246527 -0.142800 -0.425526 43344
0.183104 0.082011 0.351441 53584
0.331788 0.079508 -0.373780 53328
-1.028843 -0.049064 -0.825326 47440
0.500397 -0.077891 0.528033 46160
-0.226422 -0.126238 0.310822 44112
0.481536 0.178449 -0.166509 57936
-0.901406 -0.108929 -0.251473 44880
-0.876742 -0.084649 -0.269305 45904
-1.077995 0.007938 -1.004833 50256
-0.687065 -0.114781 0.044030 44624
0.345925 -0.077611 1.038350 46160
0.057727 0.018886 0.834497 50768
-0.012447 0.050928 0.986770 52048
0.725357 -0.161225 -1.066758 42320
-0.795753 0.081067 0.729500 53584
-0.024504 0.040316 1.020296 51536
-0.223696 -0.138357 0.385754 43344
-0.163911 0.070542 -0.953976 53072
-0.577745 -0.002180 0.495326 49744
0.144078 0.176053 0.098306 57936
0.993939 0.009471 -0.432755 50256
-0.927777 -0.088944 0.032157 45648
1.044998 0.119159 -1.102929 55376
-0.294947 0.078287 -0.775798 53328
-0.011192 -0.040193 0.412303 47952
0.853770 -0.016063 1.197660 48976
0.983171 0.029097 0.660481 51024
-0.755080 -0.096363 -0.272098 45392
-0.684878 0.103968 0.717492 54608
1.143291 -0.047333 -0.337467 47696
-0.386588 0.233735 0.989613 60496
0.661493 -0.182700 -0.901122 41296
-0.190456 0.069294 0.857794 53072
0.025202 0.040492 0.253228 51536
0.718595 -0.108086 -0.719971 44880
0.983699 0.046986 -0.929447 52048
1.075437 0.051983 0.169278 52048
-1.156841 -0.047544 0.765025 47696
0.921146 0.198456 -0.071017 58960
-0.456142 0.146234 -0.731398 56400
0.277729 -0.061770 1.058760 46928
-0.027416 -0.081421 -0.395830 46160
-1.080801 -0.090669 -0.536720 45648
-0.393784 0.195352 -0.813503 58704
0.677296 0.169968 -0.048153 57680
0.609087 -0.154704 0.581160 42576
0.021922 0.076593 0.077637 53328
1.185321 -0.060503 0.323649 46928
-0.310461 -0.163634 0.026996 42320
-0.555959 0.190611 0.795875 58448
0.073385 -0.003660 -0.636294 49744
-0.633657 0.266796 1.130276 62032
0.163754 0.164868 0.166194 57424
-0.675972 -0.073782 0.115435 46416
0.845477 -0.031632 1.132279 48464
-0.036068 -0.074524 -0.390305 46416
0.102207 -0.008454 -0.691052 49488
-0.253426 -0.104756 -0.458821 44880
-0.890729 0.120536 -1.064903 55376
-0.869622 0.126942 -1.088433 55632
-0.894353 -0.065354 -0.604147 46672
-1.156988 -0.088709 -0.570871 45648
0.581983 -0.188667 0.854118 41040
0.856024 -0.006572 0.927346 49488
-0.268503 -0.020566 -0.695922 48720
-0.819463 0.117292 0.816856 55120
0.226391 0.142536 0.245430 56400
1.117723 0.010802 0.172436 50256
0.284239 0.187188 -0.188555 58448
-0.749035 -0.064056 -0.454913 46928
0.471172 -0.167782 0.746072 42064
-0.977569 -0.059631 -0.189482 46928
-0.809673 0.075641 0.737318 53328
0.265674 0.149772 0.269986 56656
-0.286236 -0.005667 -0.652560 49488
-0.911964 -0.134961 -0.400245 43600
-0.555426 0.210088 -0.812352 59472
0.877956 0.087945 -0.344706 53840
-0.410081 0.219622 1.135296 59984
-0.577620 0.181851 0.786095 58192
-0.138995 0.035033 -0.826309 51280
-0.433496 -0.120041 -0.059478 44368
0.309049 -0.092481 0.910760 45648
-0.045990 -0.063086 -0.617913 46928
-0.099053 -0.075425 -0.138094 46416
-0.021651 0.027345 0.808465 51024
-0.734401 0.219805 -1.192362 59984
-0.696857 -0.112975 -0.241933 44624
-0.292459 -0.026910 -0.596891 48464
-1.190251 -0.016673 0.649038 48976
-0.488477 -0.074139 0.388345 46416
-0.503427 -0.064653 0.287340 46928
0.806188 -0.119112 0.596815 44368
-0.602801 -0.078089 -0.355236 46160
-0.744242 0.155951 0.867853 56912
0.465736 0.194898 0.151473 58704
0.859880 0.138137 -0.090050 56144
-0.648089 0.115651 -0.683268 55120
-1.178048 0.090584 0.183087 53840
0.863147 0.218368 -0.051530 59728
1.073788 0.002435 -0.516783 50000
-0.339493 0.220990 -1.078619 59984
-0.003213 -0.016766 0.676142 48976
0.143641 -0.015466 0.608989 48976
1.191480 -0.104582 -0.288821 44880
-0.478313 0.079821 0.642877 53328
1.014821 0.046941 -1.036551 52048
-0.753265 0.182104 0.944031 58192
-0.848603 -0.073924 0.142507 46416
0.896796 -0.015411 0.679781 48976
0.043182 0.000916 -0.824743 49744
0.428099 0.190817 0.122042 58448
0.232669 -0.022593 0.984208 48720
-0.324700 0.210866 -0.953827 59472
-0.562699 0.092766 0.673371 54096
0.089805 -0.025459 -0.631484 48720
0.956096 0.043220 1.134526 51792
-0.393905 -0.113865 0.263977 44624
0.158407 0.005334 -0.552682 50000
-0.231789 0.123863 1.109148 55376
-0.897164 -0.050721 -0.589869 47440
-0.286518 -0.114415 -0.243824 44624
0.557375 0.214779 0.124255 59728
-0.563036 0.022264 0.564925 50768
0.085401 -0.000671 -1.003349 49744
-0.604138 0.228621 0.849543 60240
0.785797 -0.115837 -0.721677 44368
-0.446049 0.263367 -0.928080 61776
0.761003 -0.057108 0.465717 47184
-0.925675 -0.072857 -0.422266 46416
-0.071409 -0.065547 -0.209517 46672
0.012920 -0.004554 0.659968 49488
1.061001 0.108269 1.014296 54864
-0.884151 -0.101234 -0.495653 45136
-0.870230 -0.070737 -0.596838 46672
-0.112685 -0.074345 -0.265277 46416
-0.108724 0.044071 -0.926663 51792
0.571692 0.075121 0.299820 53328
-0.047675 -0.067387 0.472163 46672
0.499697 -0.211688 0.954250 40016
-0.726279 -0.020941 0.612760 48720
-1.107877 -0.026382 -0.369248 48464
0.882052 -0.032307 -0.715991 48208
-1.127638 -0.059588 -0.609387 47184
0.067011 0.056903 0.980360 52304
-0.546917 -0.012580 -0.558842 49232
-0.373534 0.200156 1.167409 58960
1.034914 0.021852 0.625720 50768
-0.923894 0.045975 1.154303 51792
-0.968569 -0.105774 -0.319571 44880
-0.291882 -0.134682 -0.159084 43600
-0.462519 -0.021564 0.453082 48720
-1.100245 -0.006897 -1.156130 49488
0.712701 -0.167147 -1.079193 42064
-0.014495 0.025615 0.905464 51024
-1.187312 -0.069820 -0.769083 46672
1.185141 0.115697 -0.890261 55120
-0.870230 -0.064866 0.599234 46928
0.468086 -0.160245 -0.724438 42320
0.953109 0.106343 0.303605 54608
-0.041951 -0.018601 0.140580 48976
0.034664 0.075911 0.988426 53328
0.226964 -0.016493 0.884952 48976
0.134265 0.167470 0.169748 57424
0.120294 -0.015407 0.948740 48976
1.120226 -0.018414 -0.560848 48976
0.402988 -0.156960 1.090892 42576
0.552122 0.175695 -0.143900 57936
0.933216 0.055250 -0.895173 52304
0.430809 -0.126302 -0.622276 44112
-0.707058 -0.057112 0.523605 47184
-0.316400 -0.121969 -0.263324 44112
0.718891 -0.128497 1.153298 43856
0.289053 -0.069562 -0.789752 46672
0.763344 -0.090207 0.648979 45648
1.098328 -0.049537 -0.330640 47440
0.244751 -0.042982 0.890417 47696
0.053772 0.008016 -1.134854 50256
-0.397848 0.052389 -0.658320 52304
-0.837560 0.077370 0.786349 53328
0.065413 0.052150 -0.248293 52304
-0.523257 -0.081469 -0.334260 46160
-0.363228 -0.078227 -0.459732 46160
0.067383 0.115611 -0.075510 55120
-0.781397 0.165957 -1.101131 57424
0.973203 0.086964 0.134841 53840
0.543568 -0.201851 0.918997 40528
-1.133053 -0.014119 -0.981522 49232
0.991278 0.075549 -1.178538 53328
-0.508939 -0.011756 -0.511081 49232
-0.543102 -0.080379 -0.389105 46160
-0.215743 -0.102979 0.265191 45136
0.343156 0.240355 -0.005598 60752
0.354136 -0.128011 -0.800660 43856
1.076079 0.006252 -0.260111 50000
-0.535123 0.124182 0.702608 55376
-0.224749 0.061631 -0.832837 52560
-0.115745 0.131240 -1.064281 55888
-0.860810 -0.037647 0.507597 47952
1.092273 -0.029688 -0.474277 48464
-1.010074 -0.112717 -0.537287 44624
-0.362689 0.177191 -0.943550 57936
-0.438591 -0.136804 0.083424 43600
0.930746 -0.031277 0.573552 48464
-0.059492 -0.049595 0.170987 47440
0.243274 -0.014420 1.025852 49232
0.393540 -0.101143 0.616619 45136
-0.956443 0.041416 -0.905153 51792
-0.527632 0.209383 0.831441 59472
0.851256 -0.049347 -1.185310 47440
0.153915 0.112505 0.267204 54864
-0.176187 -0.136118 0.017725 43600
-0.142060 -0.119230 -0.131020 44368
1.055738 0.032587 0.399785 51280
-1.161180 -0.035686 -1.113946 48208
-1.077087 -0.070313 0.747705 46672
0.585020 -0.157018 0.666686 42576
-1.087804 0.031988 -0.129988 51280
-0.866653 0.077514 1.076257 53328
1.011436 0.014885 0.745110 50512
0.355802 0.243568 -0.096794 61008
1.108526 0.113352 -1.099116 54864
-0.873463 0.105384 -1.068495 54608
-0.767350 0.195981 -1.143673 58704
-0.054296 -0.014967 0.270396 48976
1.070769 0.030074 0.674547 51280
-0.497109 -0.006354 0.548358 49488
-0.527794 -0.045370 -0.432139 47696
1.012556 0.066939 -0.202522 52816
-0.411689 0.214829 -0.890305 59728
1.013942 0.062459 -1.163100 52560
-0.150273 0.083511 -1.192380 53584
-0.221381 -0.146680 -0.049334 43088
0.295962 -0.069831 -0.984159 46672
0.180833 0.120706 0.291724 55376
0.889029 -0.027626 0.876521 48464
0.627946 -0.191117 -0.950458 41040
0.119826 0.001462 0.462654 49744
-0.587016 -0.017737 -0.443043 48976
0.051082 -0.011477 -0.359141 49232
0.918343 0.088293 -0.270304 53840
0.911458 0.202425 0.095149 58960
0.761775 0.128192 0.116897 55632
0.204025 -0.040936 0.661596 47952
0.760723 -0.000681 -0.438395 49744
0.763861 0.086785 0.316126 53840
-0.652021 -0.009071 0.536975 49488
0.315383 0.252436 0.031653 61264
1.076579 0.070118 0.003117 53072
-0.773482 0.213444 1.099585 59472
0.445501 -0.145342 1.054658 43088
0.660520 -0.084667 -0.448097 45904
-0.344179 0.191252 -1.064511 58448
0.297474 0.210128 0.175061 59472
-0.914410 -0.049321 -0.103926 47440
-0.187770 -0.090063 -0.478712 45648
0.061235 0.038640 0.887880 51536
0.764777 -0.092634 -0.825403 45648
-0.252587 0.154047 -1.046292 56912
-0.067736 -0.030381 -0.779860 48464
1.163604 -0.015623 -0.569903 48976
-0.625672 -0.099165 0.234352 45136
0.512650 0.225242 0.029767 60240
-0.103499 -0.096289 -0.373956 45392
-0.427310 0.230268 -1.089348 60240
-0.534120 0.149288 0.757066 56656
-0.952128 -0.130371 -0.455180 43856
1.111632 0.033051 -0.165315 51280
1.052368 0.083062 1.081754 53584
0.756354 -0.054941 0.566081 47184
-0.721334 -0.006311 0.618222 49488
-1.071164 -0.038119 -0.770030 47952
0.452754 0.050378 0.331632 52048
0.708261 0.187541 0.037984 58448
-0.676122 -0.082615 0.332747 45904
-0.757445 -0.070003 -0.426280 46672
0.127492 -0.014185 -0.499125 49232
0.012212 0.009162 -0.825770 50256
-0.479824 -0.105673 0.305203 44880
-0.157265 -0.017397 0.662424 48976
0.559811 0.147438 0.113438 56656
0.363416 0.212168 0.010932 59472
-1.105430 -0.021151 -1.037537 48720
-1.053940 -0.041546 -0.867515 47952
-0.614028 -0.070120 -0.141778 46672
-0.933956 -0.099812 -0.286756 45136
-0.080898 -0.000932 0.768164 49744
-0.209581 0.122547 -1.147558 55376
-1.061350 -0.093019 0.699405 45648
-0.856345 0.118079 -1.127294 55120
0.911774 -0.023543 -0.554890 48720
-0.609960 0.014595 -0.569062 50512
-1.073166 0.015871 0.131212 50512
-0.718837 0.210392 -0.868278 59472
-0.377442 0.248982 0.990508 61264
0.760358 0.165317 -0.164576 57424
0.242842 -0.013986 -0.642526 49232
0.106324 0.144561 -0.087347 56400
0.879052 -0.012451 -0.796240 49232
0.686415 -0.138779 0.765099 43344
-0.106439 0.060923 -0.865529 52560
-0.236095 -0.015393 -0.696277 48976
-0.042517 -0.072007 -0.655401 46416
-0.693224 0.234066 -0.845256 60496
0.191363 0.015207 1.070812 50512
1.017464 0.102418 -1.001873 54608
-0.750346 -0.090417 0.156201 45648
-0.536750 -0.032128 0.464866 48208
-0.888930 -0.089412 -0.397035 45648
-0.730625 -0.027577 0.512577 48464
0.856586 -0.018349 -0.494110 48976
-1.069072 -0.014622 0.842388 49232
-0.871285 0.101013 -0.887757 54352
0.342489 0.246059 -0.110906 61008
0.922783 -0.003617 -0.712537 49744
0.670125 -0.022455 0.445746 48720
-0.766248 -0.091266 0.351516 45648
-0.366549 -0.039678 0.589125 47952
0.625327 0.175395 0.142618 57936
0.407571 -0.136163 -0.784714 43600
-0.424001 0.082580 -0.751035 53584
1.198930 -0.068161 0.102529 46672
-0.271442 -0.098171 -0.476891 45392
-0.939658 0.013978 0.799900 50512
-1.083072 -0.030932 -0.914687 48464
1.036700 0.011179 -0.373461 50256
1.000612 0.013313 -0.646052 50512
-0.921209 -0.092196 -0.658511 45648
0.279365 0.264606 0.008753 62032
0.742217 -0.106561 -0.637438 44880
-0.040286 0.062073 1.078032 52560
-0.791540 0.203947 1.001675 59216
1.122622 -0.017510 -0.306905 48976
-0.154150 -0.036938 0.688111 48208
0.038784 0.037719 0.154152 51536
-1.185421 -0.065023 1.119330 46928
1.015357 0.053937 1.141279 52304
0.974962 0.109987 -0.184641 54864
1.163369 -0.035713 -0.050488 48208
0.045696 0.015487 0.341693 50512
1.030025 0.123252 -0.048030 55376
-0.814621 -0.080538 0.526100 46160
0.090048 -0.015354 -0.847935 48976
-0.575953 0.298067 -1.167011 63568
-0.443730 -0.099296 0.400469 45136
-0.936042 0.098573 -0.956686 54352
-0.213963 -0.113833 -0.532114 44624
-0.708140 0.249979 1.137078 61264
-0.764487 0.226325 -0.990686 60240
-0.436986 -0.085470 -0.328556 45904
0.838197 0.009117 0.421066 50256
-0.862381 -0.064444 0.399674 46928
0.883872 0.075933 0.410664 53328
-1.110377 -0.026497 -0.234029 48464
