# .PCD v0.7 - Point Cloud Data file format
VERSION 0.7
FIELDS x y z
SIZE 4 4 4
TYPE F F F
COUNT 1 1 1
WIDTH 1679
HEIGHT 1
VIEWPOINT 0 0 0 1 0 0 0
POINTS 1679
DATA ascii
-0.163162 0.169069 -0.258893
-0.172736 0.334568 0.179393
0.185411 0.042154 -0.093402
-0.184484 0.281850 -0.238752
-0.176248 -0.060330 -0.238098
-0.163162 0.316647 -0.083560
-0.022564 0.331632 -0.093130
0.162234 0.328020 -0.114420
0.162234 0.321050 -0.159817
0.170739 -0.127403 -0.238098
-0.018247 0.334960 -0.087298
0.181364 -0.314370 0.157866
0.169998 -0.369220 0.259729
0.180819 -0.108400 0.237171
-0.162885 -0.158811 0.237389
0.180194 0.338740 -0.230070
-0.180791 0.168842 0.238098
-0.087902 0.324091 -0.089971
-0.184410 0.285360 -0.109547
0.162234 0.012502 -0.093222
-0.133654 0.342425 -0.110474
-0.163162 0.245482 -0.089809
-0.169665 0.158278 0.259421
-0.099398 0.269713 -0.087298
0.152412 0.352955 -0.091946
0.169461 -0.336619 0.166850
-0.168090 -0.315297 0.157713
0.163162 0.326535 -0.077636
-0.166232 0.320902 -0.234699
0.172511 -0.167706 -0.238098
0.162234 0.324887 -0.213321
0.098720 0.344293 -0.088225
-0.185411 -0.333630 0.006557
-0.166420 -0.246966 -0.088225
0.162234 0.295108 -0.107298
-0.162234 -0.346333 0.250503
0.165471 0.090800 0.259421
0.185411 0.314138 0.045397
-0.185411 -0.330286 0.182473
0.163671 -0.007313 0.238098
-0.061028 0.366089 0.190792
-0.162280 -0.275295 -0.259290
0.182556 0.310366 -0.110474
0.163144 0.291499 -0.087384
-0.174582 0.295010 0.259421
-0.181712 -0.369220 -0.100873
-0.193511 -0.366130 0.254385
0.168223 -0.106579 -0.110474
0.184484 -0.321310 -0.091498
0.147908 0.331320 -0.087541
0.163162 -0.325029 0.162521
0.185411 -0.321508 0.149022
0.163270 -0.028903 -0.238098
-0.159589 0.325382 0.142721
-0.168769 -0.119325 -0.109547
-0.184657 0.058418 -0.260189
-0.163719 -0.164805 -0.109547
-0.169616 0.254006 -0.259421
-0.120773 0.365806 0.135770
0.165381 0.312319 0.040572
-0.167829 -0.304892 0.260348
0.188889 -0.366130 -0.245527
0.038596 0.368591 0.135969
0.162234 -0.315220 -0.190693
0.169407 -0.010311 -0.260348
-0.185411 -0.285869 -0.106352
-0.163073 0.353882 0.257310
-0.185411 -0.317381 0.205545
-0.169022 0.062052 0.237171
0.177063 0.306870 0.234699
-0.162777 0.330720 0.260054
-0.163678 0.337813 -0.131078
0.171461 0.313267 0.237171
0.089202 0.334079 -0.088225
-0.163162 0.324275 -0.209417
-0.163162 -0.166184 -0.104070
-0.109430 0.365423 0.217535
0.162246 -0.308183 -0.259090
0.185411 -0.328040 0.258230
-0.162234 -0.310891 -0.105787
0.083170 0.356753 0.164216
-0.027772 0.364630 0.195169
-0.172215 0.059399 0.238098
-0.183262 0.337813 -0.210702
0.185411 0.328276 -0.064735
0.170418 -0.301985 0.224973
-0.064800 0.325389 -0.087298
-0.162234 -0.318247 -0.047026
-0.171476 0.304291 -0.113873
0.185411 -0.026849 -0.101691
0.182886 -0.334000 0.259421
-0.184402 -0.168430 -0.238098
0.185411 0.030310 -0.108115
-0.162234 -0.023894 -0.098914
-0.161771 0.317339 0.125925
-0.184484 0.333403 0.055847
0.176554 -0.124690 -0.109547
-0.184484 0.331621 0.165839
-0.167520 0.311392 0.134846
-0.163162 -0.332459 -0.023750
0.170824 0.297646 -0.096675
0.182032 0.349288 0.260348
-0.185411 -0.249507 -0.241814
0.168823 0.257704 0.237171
0.185411 0.319067 -0.015772
0.162234 0.146228 -0.106676
0.165654 -0.336474 -0.087298
-0.185411 -0.227798 0.255113
0.193345 -0.367394 0.268364
0.173682 0.350697 0.233761
-0.185411 0.019663 0.258925
0.185411 0.193232 -0.251281
-0.166026 0.344935 -0.110474
-0.164138 0.257269 -0.238098
-0.164140 -0.193280 -0.109547
0.179715 0.048413 0.260348
0.184484 0.120371 -0.257295
0.120366 0.357636 0.227040
-0.177423 -0.314370 0.151006
-0.181077 0.312319 -0.053047
0.185411 -0.313953 -0.177532
-0.171112 0.302207 -0.266875
-0.178761 -0.336619 0.097623
0.180577 0.172737 0.237171
0.162402 0.316298 -0.234652
-0.169109 -0.168420 -0.237171
-0.165396 -0.337546 -0.063079
0.162234 0.316102 0.227117
0.176722 -0.300635 -0.255290
0.162234 0.240661 -0.104917
0.178083 0.272822 0.260348
0.168683 0.186295 0.237171
0.166173 0.185017 0.237745
-0.185407 -0.028327 -0.088645
0.055949 0.357940 0.229175
-0.173977 0.090578 0.238098
-0.125862 0.288738 -0.087298
-0.162234 0.315320 -0.099741
-0.169450 0.311392 0.171561
-0.184484 -0.099654 -0.094600
0.184484 0.004259 -0.096703
0.165577 -0.101778 0.260348
0.162384 -0.303295 -0.259573
-0.177030 -0.290485 -0.087298
-0.162234 0.331483 -0.213696
0.163162 -0.129147 0.251750
0.185411 0.323359 -0.228854
0.003014 0.305245 -0.087298
0.095883 0.360274 0.157214
0.162234 -0.306339 0.256445
-0.178930 0.172229 -0.088225
-0.184012 -0.065007 0.259421
0.184454 -0.165927 0.238098
0.184302 -0.224221 -0.259421
0.173350 0.318849 0.235937
0.181423 -0.315297 0.098321
0.179102 -0.141596 0.259421
-0.167775 -0.358141 -0.260348
0.167062 0.338740 -0.220269
-0.179357 0.339009 -0.234699
-0.179591 0.311392 0.093715
-0.184484 -0.041217 0.245131
-0.164469 0.182679 -0.260348
0.183515 -0.081778 -0.237171
0.185411 -0.329113 0.140882
0.177664 0.262989 0.259421
0.162421 -0.315065 0.054112
0.180980 0.228079 0.237171
0.175875 -0.305156 -0.079263
-0.184338 -0.314411 0.176701
0.102015 0.331632 -0.103033
0.175086 0.340119 -0.109547
-0.185411 -0.331038 0.078246
-0.173800 -0.214246 -0.259618
-0.184484 -0.163809 0.251062
0.179262 0.315605 -0.110474
0.181576 -0.157805 0.237171
-0.167143 0.032726 -0.238098
-0.163162 0.333259 -0.053035
0.169632 -0.151467 -0.110474
0.185411 0.164462 -0.239413
0.178575 -0.145571 -0.110474
-0.163162 -0.321120 0.047302
0.162798 -0.325909 -0.219615
-0.068741 0.364112 0.190795
0.164145 0.338740 -0.172954
0.184072 -0.336619 0.234606
-0.183337 0.042280 0.237171
0.162234 0.222687 0.241272
0.169668 0.338740 -0.200382
0.107155 0.358754 0.145206
0.184484 -0.045851 0.255414
-0.178028 -0.091454 -0.238098
-0.083316 0.359683 0.235518
0.178845 -0.105724 -0.238098
-0.057648 0.307733 -0.086989
-0.185252 -0.237251 -0.237926
-0.184484 0.271382 -0.092517
0.175780 -0.314370 -0.051827
-0.181851 -0.040084 0.237171
0.184484 0.270266 -0.238969
-0.181131 -0.315297 0.192726
0.162234 0.132695 -0.103288
0.162234 0.317347 -0.153187
-0.184484 -0.035556 -0.240710
0.079198 0.357187 0.171509
-0.162234 0.349835 0.258555
-0.106960 0.361008 0.175165
-0.162234 -0.213117 -0.250767
0.043701 0.335813 -0.110474
0.148229 0.332443 0.128876
0.176437 0.250101 -0.109547
0.145229 0.340803 -0.087298
-0.166837 0.348448 -0.234699
-0.181539 -0.018975 -0.238098
0.164619 -0.337546 -0.061332
0.182724 -0.336619 0.176013
-0.170280 -0.197554 -0.259421
-0.038925 0.363595 0.226970
0.162234 0.212578 -0.254514
0.184484 0.322058 -0.218902
0.162234 0.333407 0.180097
-0.185411 -0.211545 0.246356
-0.165690 0.337813 -0.206504
0.184484 0.087275 -0.257390
-0.194705 -0.366130 -0.103774
0.163162 -0.316674 -0.106370
0.165068 0.002884 -0.259421
0.145935 0.297321 -0.087298
-0.178307 -0.043699 -0.087298
-0.182331 -0.014100 0.260348
0.175725 -0.366130 -0.087620
-0.184650 0.245128 0.252879
0.162234 -0.327043 0.225182
0.162273 -0.319735 0.113193
-0.191729 -0.366130 -0.094785
0.185411 0.319070 0.203046
0.175195 -0.305597 -0.108036
-0.162234 0.206487 -0.249922
0.183813 -0.131873 0.238098
-0.183881 0.297091 0.237171
-0.185411 0.328914 -0.134688
-0.168881 0.114620 -0.260348
0.156409 0.272920 -0.098860
0.097519 0.310897 -0.086989
0.181742 0.152949 0.259421
0.163162 -0.334828 -0.012761
0.182677 0.180736 -0.237171
0.184484 0.196007 -0.089480
0.177932 -0.348421 0.235293
-0.032440 0.330705 -0.093167
0.185411 -0.035731 -0.101832
-0.163162 -0.000100 -0.094226
-0.154942 0.318141 0.216249
0.172197 0.138524 -0.238098
-0.068903 0.330705 -0.092341
-0.171943 0.338740 -0.228396
0.185411 0.247054 0.257198
-0.184036 -0.194525 -0.087299
-0.177821 0.247356 -0.088225
0.180396 0.333641 0.011521
0.181646 0.143927 0.237171
-0.087179 0.365104 0.156016
0.028138 0.364109 0.169992
0.150893 0.292294 -0.088225
0.106679 0.363376 0.206246
-0.179493 0.267825 0.238098
-0.183473 0.330533 0.237171
-0.020696 0.364343 0.196366
0.002773 0.299851 -0.086989
-0.163162 -0.165142 0.253814
0.167285 -0.337546 0.163630
-0.150543 0.320707 0.211382
0.181663 0.023735 -0.260348
-0.172616 0.302933 -0.120689
-0.163162 0.246924 0.256289
0.180516 -0.333374 -0.142926
-0.162983 -0.305992 -0.112946
0.162234 0.350996 -0.235551
-0.184484 0.330460 -0.246689
-0.162234 -0.010734 0.256489
0.164963 -0.347633 0.260348
0.174827 0.311392 0.219041
0.170464 -0.315297 0.017837
-0.133757 0.271747 -0.087298
0.185302 -0.332513 -0.124325
-0.179049 -0.347822 -0.264580
0.185363 -0.154441 0.244900
0.162234 -0.325463 -0.211759
0.162234 -0.334011 -0.024531
0.076464 0.304738 -0.086989
0.185399 -0.267947 -0.238429
-0.185411 -0.119622 0.243943
0.185411 0.108236 -0.256051
0.179778 -0.344443 -0.087298
-0.168456 0.333641 0.075873
-0.142076 0.353882 -0.107765
0.162234 -0.143127 -0.090647
-0.171010 -0.336619 0.122353
0.183591 0.204669 0.237171
0.162544 0.200840 0.252661
0.004444 0.365854 0.229297
-0.163162 0.026618 -0.253738
0.096037 0.362721 0.143441
0.168548 -0.359967 0.238098
0.179892 -0.314370 0.140808
-0.162234 -0.314767 -0.226125
-0.185411 -0.229927 0.244100
-0.132940 0.352700 0.227832
0.162234 -0.061554 0.253282
-0.176412 0.343299 0.261027
-0.168453 -0.315297 -0.058825
0.125196 0.355754 0.236436
0.185411 0.312868 -0.045269
0.179806 -0.337546 -0.050016
-0.079884 0.276165 -0.087298
-0.163162 -0.336454 0.080049
-0.055087 0.324529 -0.086989
-0.184484 -0.081183 0.239483
0.168991 0.172977 -0.087298
-0.162234 0.147956 -0.094005
-0.122955 0.330705 -0.107787
-0.184484 -0.316729 -0.162342
0.163162 0.081439 0.256734
-0.163162 0.202775 -0.242815
-0.172759 -0.314370 0.010893
0.035630 0.356769 0.227228
-0.169777 -0.315297 0.004139
0.165219 0.311392 0.064139
-0.162234 -0.189556 -0.243550
-0.018870 0.330712 -0.088616
-0.163162 0.147801 0.254681
0.185411 -0.365882 0.246214
0.168458 0.334568 0.011071
0.181101 0.342087 -0.234699
-0.183049 -0.119369 -0.088225
-0.184586 -0.294470 0.252880
0.177946 -0.340962 -0.234699
-0.164767 -0.330500 0.259421
-0.028545 0.331632 -0.096324
-0.162234 -0.247585 -0.107103
0.177970 -0.157205 -0.109547
-0.185411 -0.020858 -0.094561
-0.179027 0.334568 0.137702
-0.162561 -0.361075 0.237666
-0.080010 0.287140 -0.087298
0.104543 0.266697 -0.086989
0.174587 0.340594 -0.269003
-0.171246 -0.314370 0.012588
-0.184484 -0.279427 -0.106739
0.178030 -0.103433 0.259421
0.163162 -0.340398 -0.240790
-0.162234 0.041673 0.252526
0.163162 -0.266700 -0.258955
0.174949 -0.314370 0.044333
-0.163162 -0.316895 0.065467
-0.185411 -0.320844 -0.196479
-0.176901 0.201315 -0.088225
0.162234 0.324322 -0.021982
-0.184484 0.319121 -0.083875
-0.184484 -0.319795 -0.131354
-0.173884 0.334568 -0.001306
0.162234 0.171483 -0.243598
-0.180786 0.333641 0.039438
-0.184484 -0.244741 -0.106915
0.169101 -0.030734 0.259421
-0.164879 -0.321124 -0.237171
-0.159375 0.352955 -0.088329
0.174284 0.306416 -0.084825
-0.185411 0.325627 -0.234349
0.184484 0.013286 -0.254986
-0.163162 0.188917 0.249323
-0.170849 -0.074630 -0.260348
0.163162 0.347624 -0.241705
-0.163115 0.333927 -0.213541
-0.180762 -0.333374 -0.206356
0.184484 0.224487 -0.109037
0.172031 -0.333374 -0.122634
0.173189 0.334568 0.078422
0.179536 -0.332447 -0.134750
0.162234 -0.087643 -0.258613
-0.184074 -0.244033 -0.259421
-0.185411 0.163476 0.244248
-0.162234 0.308496 -0.239837
0.163162 -0.036349 0.251729
-0.179759 -0.331020 -0.110474
0.162234 0.097733 -0.254334
-0.176259 0.353882 -0.085521
-0.081176 0.364422 0.162483
-0.114854 0.363861 0.225593
0.166834 -0.314370 -0.033397
0.185354 -0.076928 -0.109456
0.167659 -0.012640 -0.259421
0.162234 0.331617 0.146812
-0.166379 0.311392 0.041692
0.162234 0.271870 -0.092335
0.171399 0.344219 0.237745
-0.162234 -0.317595 -0.103601
0.182540 0.250438 0.260348
0.162234 -0.330054 0.088061
-0.162234 0.314934 -0.047985
-0.162451 -0.275481 -0.099432
0.185411 -0.253463 0.253484
-0.185411 -0.351657 0.257775
0.179317 0.338015 0.234699
-0.184484 0.334534 -0.123967
-0.162234 0.338895 0.257647
-0.184484 -0.321229 -0.238486
0.178442 -0.337546 0.065808
0.178346 0.312319 0.069172
-0.165689 -0.360923 -0.260348
-0.175459 -0.337546 0.107081
0.163162 -0.115356 0.257113
0.163162 0.323407 -0.006809
0.178810 -0.288336 -0.109547
0.115942 0.280447 -0.087298
-0.162234 0.151136 -0.241088
0.169790 -0.345824 -0.084825
0.184044 0.038611 -0.259421
0.162234 0.089017 0.254704
-0.184482 0.333641 0.077622
0.152957 0.279608 -0.103587
0.163162 0.226585 -0.103828
0.167708 -0.016291 0.237535
0.028061 0.358782 0.157252
-0.162234 0.188042 0.242717
0.176154 -0.311125 -0.225452
0.179717 -0.210074 0.237171
0.034025 0.365784 0.226297
-0.162234 -0.105972 -0.095645
-0.182021 0.334568 0.205393
0.183057 0.322055 -0.109547
-0.016283 0.356284 0.140613
0.172314 -0.315297 0.218767
0.061305 0.357856 0.189616
-0.174945 0.032292 0.237171
0.179199 0.329961 0.238098
-0.175289 0.349465 0.240413
-0.170178 -0.337546 0.218943
-0.184484 0.316303 -0.071259
-0.023908 0.307874 -0.087298
0.184200 0.334552 0.036405
0.109482 0.336465 -0.110474
0.182922 -0.208378 0.238098
-0.158835 0.316445 0.151638
0.175550 0.165474 0.259421
-0.177389 -0.172339 -0.237171
0.124467 0.361604 0.228172
0.040277 0.359901 0.226725
0.172920 0.186938 0.237171
-0.181887 0.187906 0.259421
0.172750 0.089921 -0.087298
0.165858 -0.315297 0.094818
-0.167671 -0.366130 -0.102205
0.163162 0.316626 0.218071
-0.024314 0.365793 0.220113
0.163389 0.080217 0.238098
-0.163162 0.326487 0.054878
-0.162234 -0.019317 -0.240765
0.185411 0.163062 -0.093964
0.183637 -0.337546 0.097375
0.177962 0.315627 -0.087818
-0.162234 -0.090331 0.246651
-0.032246 0.353882 -0.097485
0.162234 0.295003 -0.241897
0.182631 -0.164540 0.260348
-0.177529 -0.349155 -0.247217
-0.163162 0.331928 -0.151578
0.168265 0.318247 -0.237171
0.179519 -0.314370 0.212774
0.177307 0.301073 -0.096956
-0.169958 0.158361 -0.260348
-0.162234 0.323267 -0.147017
-0.162234 -0.313912 -0.132242
0.112998 0.366115 0.189911
0.184569 -0.174520 -0.245953
0.020019 0.359706 0.172470
0.021725 0.357789 0.165286
-0.175889 0.302677 0.228444
-0.170049 0.014414 0.259421
0.176766 0.316490 -0.227835
-0.081696 0.290352 -0.086989
0.172416 0.059900 -0.259421
0.174353 0.201295 -0.238098
-0.181507 -0.305317 -0.112946
0.187752 -0.369220 -0.244062
0.185411 0.112351 0.251250
-0.168174 0.315563 -0.233947
0.176599 -0.114196 -0.087298
-0.177662 0.338740 -0.203154
0.168865 -0.315297 0.061954
0.185411 0.315441 0.200964
-0.177052 -0.322051 -0.234699
-0.180945 -0.332447 -0.151075
-0.183810 -0.321327 -0.110474
-0.175464 -0.356860 0.236082
-0.174296 -0.353276 0.231543
0.162928 0.122015 0.257866
0.165815 0.333641 0.051467
0.185411 -0.241129 -0.252175
-0.185411 -0.207876 -0.256458
0.165938 0.349392 -0.088225
0.163071 0.334448 -0.003646
-0.168132 -0.340823 0.238098
-0.172959 -0.299567 -0.269951
0.163162 -0.320074 0.182058
-0.184275 -0.075907 0.260323
0.167989 -0.314370 0.138971
0.170099 -0.358500 0.260348
-0.163162 -0.214566 0.259217
-0.175868 0.033017 0.237171
0.163162 -0.146563 -0.244390
0.162655 0.334167 -0.064806
-0.107129 0.360177 0.222257
0.158219 0.328583 0.215365
-0.066017 0.308570 -0.087298
0.172109 -0.112768 0.259421
-0.177170 0.334430 -0.012509
-0.168767 -0.303112 0.261275
-0.172887 0.326007 -0.260348
0.028664 0.331632 -0.104382
-0.168188 -0.082929 0.238098
-0.091971 0.364566 0.235473
0.184484 0.271137 -0.253793
0.184065 -0.333370 -0.186637
-0.120438 0.310701 -0.088225
-0.176583 -0.333244 -0.113188
0.162234 0.327828 0.200321
0.162234 0.301012 -0.239131
-0.162234 -0.042943 0.240482
0.142970 0.332807 -0.110474
0.180944 -0.150603 0.238098
0.163162 -0.323169 0.179517
-0.163162 0.332579 0.181264
0.163162 0.204609 0.239548
0.169070 -0.313999 0.238098
-0.172353 0.141045 -0.259421
-0.162234 -0.240292 -0.104578
0.180732 -0.103931 0.260348
-0.185119 0.341398 0.251670
-0.064570 0.356564 0.189499
0.171392 -0.276231 0.238098
-0.170091 0.088724 -0.087298
-0.125032 0.300351 -0.087298
0.135084 0.353068 -0.110343
0.163834 -0.324429 -0.234699
0.179504 -0.065996 -0.259421
-0.184484 0.154818 -0.259016
-0.185411 -0.316929 0.107138
-0.163162 -0.335417 0.241168
-0.179578 0.209728 -0.088225
0.170001 -0.190154 0.259421
0.176080 0.134294 -0.087298
0.172805 0.296837 0.237027
0.163162 0.287602 -0.251969
-0.185411 0.100508 -0.247042
0.104912 0.270804 -0.086989
0.185411 -0.326236 0.082160
-0.078090 0.358785 0.177948
-0.136248 0.330035 -0.087298
0.178169 0.333641 0.089633
-0.179717 -0.230377 -0.110474
-0.050796 0.284898 -0.087298
-0.176215 0.350173 -0.109467
0.162234 -0.102301 -0.244728
-0.058594 0.317859 -0.088225
0.164327 -0.118023 -0.237171
-0.179866 -0.337546 0.089393
-0.163162 -0.108069 0.241857
-0.165351 -0.336619 0.130733
-0.184484 -0.331599 0.161338
-0.163162 -0.329670 0.164454
-0.182662 -0.314370 0.079957
-0.163162 0.316541 -0.063098
0.166949 0.329254 -0.237171
0.164976 0.205663 0.259421
-0.185238 -0.305353 -0.088022
0.149275 0.326336 0.212990
0.166908 -0.338128 -0.259421
0.178914 -0.050542 -0.087298
-0.173732 -0.311125 -0.117189
0.184484 -0.317309 0.250265
-0.168057 -0.124885 -0.260348
-0.179726 0.143554 0.259421
0.179815 0.334568 0.114828
-0.162443 -0.208616 0.259685
0.174673 -0.360311 0.237171
-0.162760 -0.327675 -0.252545
-0.163162 -0.321533 -0.053003
0.180712 0.355118 0.253191
-0.184484 0.318342 0.251595
0.051605 0.358610 0.210399
0.033505 0.353233 -0.110255
-0.180045 0.164679 -0.087298
0.174665 0.312319 -0.066316
0.079455 0.280704 -0.087298
-0.151289 0.322549 -0.089770
-0.162337 0.212339 -0.238046
0.184044 -0.270508 0.238098
0.178302 0.351198 -0.113042
0.141990 0.312504 -0.087298
-0.169781 -0.314370 0.110784
0.163162 0.260492 0.238224
-0.184484 0.316498 0.097789
-0.151386 0.319152 -0.086989
-0.062320 0.353882 -0.104986
-0.094180 0.262721 -0.087575
-0.162234 0.107687 -0.106046
0.162234 -0.047740 -0.256806
-0.171330 -0.369220 0.235369
-0.178236 0.268750 -0.110474
0.181512 0.333387 -0.112946
-0.184484 0.072137 0.246161
0.179096 0.353882 -0.086417
-0.185411 0.342952 -0.252335
-0.174607 0.349586 0.238254
0.049015 0.330705 -0.106821
0.174928 0.352564 -0.233772
-0.183659 0.100097 0.237171
0.104241 0.307334 -0.087298
0.066048 0.353222 -0.087509
-0.180879 0.312319 0.026902
0.170963 0.199661 -0.260348
0.167565 0.316490 -0.162654
0.188051 0.317418 0.210854
-0.173629 0.243212 0.237171
0.185411 -0.066284 -0.255537
-0.184484 -0.336295 0.201150
-0.180886 -0.314370 0.111500
-0.171836 0.059652 -0.237171
0.072437 0.352955 -0.103885
0.124493 0.284251 -0.087298
0.185411 -0.320800 -0.252764
-0.185411 0.026472 0.245143
0.177005 0.346114 -0.266266
0.185411 0.084417 -0.103448
0.184484 0.330170 0.093562
-0.179379 0.311392 -0.038281
0.097897 0.355613 0.130814
0.178561 -0.347223 0.234699
0.102963 0.304414 -0.086989
-0.177423 -0.349286 -0.255376
0.159380 0.335310 -0.099254
0.122220 0.364679 0.132930
0.178657 0.312319 0.000995
-0.164148 0.089412 -0.237171
0.178150 0.142790 -0.259421
0.162557 -0.314870 0.190590
-0.184484 -0.334357 0.188993
-0.176520 0.296521 -0.113873
0.177318 0.101869 0.237171
-0.184484 -0.042304 -0.251825
0.184410 -0.315297 0.205246
-0.163697 0.333641 0.106636
0.181352 0.311392 0.004142
0.162234 0.319333 -0.015192
-0.180372 0.264443 -0.237171
-0.163162 -0.030362 0.254567
-0.107748 0.356299 0.129749
-0.096338 0.330705 -0.096276
-0.165238 0.333641 -0.039326
-0.097079 0.278292 -0.086989
0.169131 -0.348065 -0.261732
0.182463 -0.215785 0.260348
0.185411 0.149829 0.245507
0.185411 0.015697 0.240777
0.184484 0.261799 -0.238175
-0.172474 0.312319 0.181370
-0.184993 0.329182 -0.055260
0.168975 -0.369220 0.234564
0.177054 -0.137406 -0.259421
0.184484 -0.207842 -0.248872
-0.168662 -0.314370 0.052733
-0.184484 -0.041030 -0.250790
-0.162234 0.195910 -0.093076
0.171922 0.337422 0.260348
0.184316 0.312319 0.003284
0.169219 -0.062691 -0.259909
-0.163162 -0.072696 0.257972
-0.175191 0.230870 0.237171
0.019182 0.359742 0.128954
-0.169082 0.310977 -0.112946
-0.170460 -0.303607 0.229972
-0.183234 0.337813 -0.175770
0.163162 -0.009356 -0.255359
0.179417 -0.302470 -0.265193
0.179689 0.240515 -0.259421
-0.165434 -0.191215 -0.259421
0.163162 0.243517 -0.255771
-0.180965 0.289289 -0.260348
-0.107018 0.364050 0.220115
-0.163162 0.035355 0.240222
-0.084643 0.274808 -0.087298
-0.144469 0.281757 -0.088225
0.184484 -0.098416 -0.257715
-0.163162 0.101329 -0.258112
-0.069966 0.356613 0.230921
-0.162492 -0.316277 -0.165574
0.184484 0.321733 -0.124440
0.165510 0.338740 -0.226585
0.185411 0.325225 0.081315
0.182906 0.311392 0.140387
-0.185411 0.028786 -0.254170
0.163162 -0.232263 0.256918
-0.162234 0.318511 0.221348
0.166160 0.020373 -0.259421
-0.181261 0.191432 -0.260348
-0.163162 0.324786 -0.123588
-0.162234 -0.240474 -0.241061
0.013480 0.293464 -0.087298
0.184029 -0.337545 0.226407
-0.178794 -0.354751 0.259421
-0.185159 -0.317301 -0.012572
0.168834 -0.020756 0.238098
0.184484 0.333573 -0.174169
0.163162 -0.318341 -0.063754
-0.177129 -0.347550 -0.265684
-0.177407 0.211965 -0.110474
0.096316 0.331279 -0.098239
-0.162234 0.254975 -0.257422
0.162234 0.110039 0.254257
-0.174861 -0.159227 -0.238098
-0.126357 0.310548 -0.087298
-0.162453 0.331390 -0.110474
0.053474 0.352955 -0.104907
-0.165231 0.312319 0.219511
-0.162234 -0.205685 -0.238921
0.171462 0.315563 -0.171058
0.185411 0.317249 -0.209659
0.184315 0.316490 -0.155393
0.184484 0.006983 -0.106578
0.176679 0.056866 -0.259421
0.184484 -0.155477 0.238231
-0.125762 0.308254 -0.088225
0.163162 -0.330267 -0.206893
0.159762 0.314679 0.215950
-0.145158 0.287796 -0.086989
0.162234 0.322299 0.132227
-0.185411 0.315238 -0.048110
0.162974 -0.322431 0.200753
0.162951 0.285807 -0.087474
0.163162 -0.325759 -0.038302
-0.175837 0.071686 0.237651
0.162621 -0.106379 -0.087733
-0.184484 0.076365 0.256713
-0.185189 0.355049 -0.249619
0.178838 -0.344447 -0.234699
0.177564 -0.315297 0.169322
-0.183035 0.091319 -0.259421
0.159762 0.319184 0.189956
-0.163162 0.045460 -0.253383
-0.185411 -0.156134 -0.257587
-0.164765 -0.336619 -0.041544
-0.169228 -0.044902 -0.237379
0.184484 -0.026975 0.255677
-0.009881 0.354567 0.132465
-0.159762 0.329332 0.227105
-0.184930 0.120173 -0.093779
-0.176001 0.320762 0.238098
0.167962 0.036493 -0.238098
0.185411 -0.352044 -0.100561
-0.167096 0.218349 -0.260348
-0.159762 0.316335 -0.091136
-0.173752 -0.297779 -0.237171
-0.109768 0.330705 -0.094906
-0.171760 0.093175 -0.110474
0.131127 0.277578 -0.088225
-0.183013 0.205321 0.259421
0.178209 0.312319 0.069324
0.185411 0.322189 -0.231832
0.162234 0.326167 -0.094877
-0.071076 0.331632 -0.091957
-0.176940 -0.336634 0.172608
-0.162234 -0.335075 -0.081154
-0.163894 0.296031 -0.088225
0.166987 -0.337546 -0.072605
-0.183854 -0.109797 -0.109547
0.180012 0.332613 -0.234699
-0.177410 0.290854 -0.088225
-0.184484 0.321447 0.171934
-0.164813 -0.295056 -0.235511
0.132818 0.277986 -0.087298
0.132573 0.284954 -0.086989
0.182230 0.052146 0.259421
-0.185411 -0.331060 0.208867
-0.188975 -0.369220 -0.235775
0.180002 -0.095646 -0.259421
0.162247 -0.315615 0.033640
-0.164023 -0.336619 0.179282
-0.181586 0.114103 0.238098
0.096440 0.366244 0.152026
-0.177969 -0.333374 -0.148944
-0.162234 -0.179054 0.242494
-0.174952 -0.311125 -0.173228
0.163162 0.312118 -0.250120
0.169705 -0.051538 0.237171
0.182733 0.299513 -0.237171
0.185323 -0.321574 -0.026536
-0.184484 -0.287005 -0.091631
-0.157499 0.352955 -0.107395
-0.171332 -0.016410 -0.088225
0.163162 -0.084108 0.252395
-0.163162 0.093502 0.239878
0.162234 -0.317257 0.138379
0.177764 0.318735 -0.259421
-0.184484 -0.320486 0.154123
-0.166123 0.240442 -0.259421
-0.115757 0.347417 -0.088225
-0.184484 -0.189110 -0.093704
0.184484 0.318061 -0.103874
0.169538 -0.209386 -0.237171
-0.162738 -0.338677 -0.251905
0.184734 -0.329503 -0.061938
0.179209 0.296831 -0.237171
-0.162410 0.280012 -0.246348
0.172234 -0.315297 -0.016804
0.173380 -0.152750 -0.088225
-0.176209 -0.183662 -0.110474
0.180274 -0.353961 -0.234699
0.168468 0.153863 0.260348
0.015882 0.360785 0.142859
0.185411 0.325079 -0.042517
-0.184484 0.133982 -0.104489
0.162234 -0.329506 -0.069788
0.182921 0.083574 -0.110474
-0.162234 0.306330 -0.253338
0.164323 -0.337546 -0.030661
0.166718 0.310839 -0.238098
0.171338 0.301136 0.265910
-0.165472 0.343518 -0.260348
-0.184484 0.312798 -0.042696
0.169042 0.115161 0.259421
0.162234 0.277495 -0.242590
-0.162234 0.195225 0.250783
-0.178271 0.334568 0.201647
-0.178033 0.298054 -0.087298
0.163162 -0.335151 0.132080
-0.184488 0.331141 -0.144088
0.162234 0.086333 0.241072
0.068277 0.361034 0.128747
-0.162390 -0.322070 0.237171
-0.184484 -0.005381 -0.109019
-0.145268 0.343622 0.229362
0.167554 -0.125331 0.238023
-0.046874 0.365972 0.207874
0.184532 -0.314270 -0.136849
0.168325 -0.102835 0.259421
0.000016 0.289045 -0.088225
0.165760 0.191303 0.259421
0.020951 0.357441 0.130010
-0.173823 -0.307716 -0.261839
-0.165976 -0.053827 -0.238098
0.163086 -0.333261 -0.149603
-0.028674 0.362940 0.188014
0.079525 0.301293 -0.087298
0.163162 0.175945 0.252784
-0.162234 -0.243680 -0.091986
-0.163060 -0.229760 -0.251017
-0.180726 -0.284503 -0.087298
0.182086 0.334568 0.205661
-0.170432 0.333646 0.038713
-0.185411 -0.170283 -0.107501
0.179703 -0.117203 -0.260348
-0.161134 0.324825 0.217550
-0.177713 0.195563 0.260348
0.162234 -0.268457 0.257769
-0.180697 0.328335 -0.237171
-0.162234 -0.333251 0.081868
-0.020714 0.358627 0.221307
-0.164857 0.333641 0.177533
0.114938 0.332880 -0.088225
-0.185411 -0.251852 -0.255379
-0.173240 0.342662 -0.120662
0.163162 -0.175118 -0.250885
0.174440 0.296149 -0.085327
0.167755 -0.016565 -0.259569
0.054850 0.344646 -0.110474
-0.185411 0.038838 -0.090740
-0.177465 -0.170147 0.237171
0.179090 -0.351256 0.237171
-0.177112 0.089213 0.237367
-0.171730 -0.307728 -0.234699
-0.125000 0.352955 -0.098426
-0.175186 -0.298845 -0.234928
-0.176759 0.248678 -0.109547
-0.163162 0.241232 0.259177
-0.182560 0.047519 -0.088225
0.163162 0.178511 -0.108842
-0.163162 0.185689 -0.092574
0.179627 0.324246 -0.259421
0.184484 0.197923 0.254127
0.184484 0.174394 -0.091070
0.167892 0.063003 0.237171
-0.184484 0.003508 -0.090744
-0.170136 0.056116 -0.260348
-0.173832 -0.337454 0.016688
0.010317 0.311396 -0.088225
-0.184484 -0.083073 -0.088747
-0.185411 0.327567 -0.071715
-0.173657 0.308369 -0.260348
-0.132061 0.323900 -0.088225
0.185030 -0.345285 -0.110033
-0.162234 -0.216212 -0.103825
0.170074 -0.064653 0.260348
0.152299 0.337069 -0.095602
-0.184484 0.176864 -0.107597
-0.184484 -0.320032 -0.120377
0.139054 0.278538 -0.087298
0.184484 -0.011297 -0.107394
0.144520 0.344084 0.142306
-0.185411 0.255094 -0.090975
0.183157 0.234809 -0.110474
-0.177744 0.333641 0.085424
0.026573 0.365675 0.167373
-0.162234 -0.045312 -0.104210
0.181758 -0.346778 -0.237171
-0.179336 -0.352267 -0.084825
0.127495 0.325629 -0.087298
0.163162 0.185260 0.259135
0.167889 0.311392 0.118168
-0.150939 0.280225 -0.099751
0.024961 0.366325 0.153289
-0.159107 0.326596 0.146499
-0.012428 0.352955 -0.103845
0.174150 -0.314370 0.087568
-0.163162 -0.323426 0.176088
0.179178 -0.315297 -0.043135
-0.185411 0.187212 -0.093669
-0.173403 -0.333925 0.234699
0.185411 0.326434 0.157470
0.173684 -0.122974 0.260348
0.185411 0.122854 0.258531
-0.172020 -0.366130 -0.115521
0.165637 -0.236864 0.237171
-0.173537 -0.337169 -0.234699
-0.172826 -0.081726 -0.260348
-0.173126 -0.186937 -0.238098
0.184484 0.312730 0.071045
-0.165395 -0.259370 -0.259421
-0.104689 0.312075 -0.087298
-0.180545 -0.349189 -0.260348
0.184385 0.235115 -0.237226
0.184744 0.315769 -0.114828
-0.185411 0.001775 0.241782
0.025583 0.305202 -0.087298
0.177449 -0.095428 -0.238098
0.181630 -0.337546 -0.067952
-0.169518 -0.192830 0.237171
0.166735 -0.336619 0.179738
-0.162234 0.101267 0.249677
-0.015456 0.368871 0.133599
0.185411 -0.268093 -0.246587
-0.105326 0.267185 -0.087298
0.170364 0.302109 -0.110721
-0.184736 0.073852 -0.245066
0.179085 0.218427 0.259421
0.170897 -0.347532 0.226687
-0.001712 0.330705 -0.093466
0.173387 -0.311125 -0.231746
0.184484 -0.231972 0.240687
-0.185411 0.057125 0.240605
0.165855 -0.278173 0.237171
-0.179193 -0.333374 -0.191442
-0.163162 -0.317070 -0.122674
-0.185131 0.249885 -0.099024
-0.162234 0.042047 0.244534
0.163556 -0.366130 0.236674
-0.162234 0.261611 -0.089396
0.184485 0.063595 0.246199
0.180129 -0.128273 0.237171
-0.181267 0.190273 -0.109547
0.112529 0.323334 -0.086989
-0.184484 0.168413 -0.257214
0.162234 -0.085723 -0.095412
0.168228 -0.348195 0.233772
-0.185318 -0.228498 0.259452
0.171394 -0.369220 0.229498
0.162234 -0.329791 -0.214275
-0.183742 -0.178082 -0.259421
0.173759 -0.308344 0.225487
-0.162234 -0.290160 -0.246496
0.162234 0.319924 0.225920
0.166497 -0.182762 -0.110474
-0.178835 0.052486 0.260348
-0.163162 0.318875 0.105083
0.176334 -0.305106 -0.117569
-0.164782 -0.323589 -0.259421
-0.184484 0.254677 0.249933
-0.162234 0.322217 0.037450
0.185411 -0.227653 0.254246
0.168106 0.319801 -0.110474
-0.119452 0.359839 0.226678
0.183287 -0.369220 0.233633
0.184484 0.178455 0.245992
-0.167500 0.164030 0.260348
0.177146 -0.250385 -0.260348
-0.162234 -0.189119 -0.107962
-0.178604 0.022650 -0.110474
0.170946 0.045511 0.237171
-0.185991 -0.366130 -0.097643
-0.167959 -0.330842 0.260348
0.173433 0.199338 -0.238098
0.185411 0.332240 -0.253367
0.184484 0.225024 -0.091179
-0.165626 0.355118 -0.251240
0.162234 -0.270539 0.243308
-0.171907 -0.333374 -0.223845
0.166638 0.227509 -0.109547
-0.181775 0.333641 0.188450
-0.162234 0.324455 -0.087019
0.158318 0.341176 -0.095852
-0.162234 -0.325872 0.131355
0.176649 -0.156766 -0.260348
0.181818 -0.012949 0.238098
0.162234 -0.037426 -0.255081
-0.028870 0.361801 0.205907
-0.184702 -0.329548 0.237171
-0.184484 0.261128 -0.092017
0.169252 -0.314370 0.168031
-0.163162 0.329703 -0.192688
-0.176571 0.334196 0.085792
0.121221 0.362951 0.228905
-0.162234 0.146531 0.253943
-0.163162 0.018346 -0.100429
0.019924 0.331632 -0.105047
-0.084962 0.300770 -0.088225
0.168123 0.340058 -0.260348
-0.163829 -0.080961 0.238098
-0.173852 -0.298164 -0.233772
-0.174182 -0.332447 -0.202579
0.163162 -0.324898 -0.193827
-0.162234 -0.298649 -0.093009
-0.162234 -0.114246 -0.241166
0.170349 -0.290085 0.238098
-0.163162 -0.324985 -0.028712
-0.184484 0.335537 -0.215828
0.179885 -0.255154 -0.109547
0.162234 0.315024 0.082471
-0.069715 0.283890 -0.087298
-0.100844 0.360014 0.142746
-0.163162 0.329900 -0.154666
0.171499 0.348214 0.232003
-0.071504 0.360474 0.128796
0.185411 -0.204613 -0.094324
0.076857 0.330705 -0.106936
-0.162234 -0.331650 0.087517
-0.093748 0.321154 -0.088225
-0.172867 -0.029626 -0.237171
0.184522 -0.337450 0.037705
0.184484 0.317002 0.201570
-0.162234 -0.367792 -0.249582
0.170142 -0.315297 0.194113
-0.035389 0.330705 -0.108422
0.184698 0.347790 0.234699
-0.166606 0.113930 0.259421
0.163162 0.204376 -0.109186
-0.162234 0.261921 -0.106948
0.171323 0.108589 0.259421
0.177543 0.350837 0.224335
0.180453 0.255204 0.238098
0.168872 -0.305332 -0.118000
0.112209 0.357283 0.215410
-0.065618 0.357278 0.189437
0.184484 0.328504 0.150711
-0.172258 0.302675 0.227506
-0.185411 0.096209 -0.256157
0.184484 -0.285111 -0.089657
0.167447 -0.310198 -0.129376
0.164848 -0.227604 -0.238098
0.021633 0.357857 0.147295
0.185411 -0.087465 0.249395
0.011829 0.365922 0.229443
-0.017060 0.365894 0.233836
-0.168601 -0.314370 -0.079908
0.081070 0.318747 -0.087298
0.188662 -0.366130 -0.267678
-0.179605 0.349628 -0.113350
-0.162234 -0.238482 0.250020
-0.163162 0.050397 0.243574
-0.066078 0.289747 -0.087298
0.184320 0.338703 -0.154308
-0.083619 0.367741 0.131312
-0.179197 -0.304375 -0.116881
0.173579 -0.235186 -0.260348
0.185411 -0.327301 -0.038171
-0.165309 -0.295056 0.235087
-0.170608 -0.268853 -0.259421
-0.184484 0.072438 -0.092029
0.169018 0.334568 0.006654
-0.183050 0.316490 -0.119543
0.182044 0.263250 0.260348
-0.109150 0.365278 0.159967
0.184484 0.196609 -0.257581
-0.163162 0.349884 0.248657
-0.167878 -0.303610 -0.079630
-0.182532 0.161143 -0.088225
-0.177940 -0.104764 -0.088225
-0.162234 -0.093088 0.258543
-0.178334 -0.347537 -0.084825
0.182333 -0.275904 0.237171
-0.184958 -0.295517 -0.236492
-0.168207 -0.326887 -0.110474
-0.162575 -0.322508 -0.112946
0.162234 -0.329490 -0.105575
0.163275 0.298008 -0.084825
0.165782 0.338740 -0.225989
-0.183250 0.126101 -0.238098
-0.175517 -0.013010 0.237872
0.185411 0.018192 -0.100940
0.171977 -0.314370 0.198318
0.163162 -0.319798 0.000151
-0.164274 0.311392 0.083720
0.178203 -0.316565 -0.084825
0.184484 0.008974 -0.247737
0.170461 -0.261149 -0.087298
-0.184484 0.242603 -0.095880
0.149869 0.328542 0.211666
-0.170102 -0.230728 0.259421
0.163162 0.232962 0.252242
-0.185411 0.333048 -0.100369
-0.185411 0.327909 0.125749
-0.162600 -0.337089 0.182936
-0.167822 0.118140 -0.110474
-0.162234 -0.233013 0.257535
-0.162234 0.331233 0.223895
0.163760 0.200253 -0.260348
0.183684 0.033691 -0.238098
0.185411 0.332481 0.067675
-0.185393 0.033361 -0.247439
-0.179847 -0.306476 0.259421
-0.173168 0.294787 -0.260348
-0.171434 -0.308960 0.237171
0.162234 -0.026705 -0.249184
-0.108968 0.320734 -0.087298
-0.185411 -0.327839 -0.081302
-0.176295 -0.295056 -0.086770
-0.171907 -0.005522 -0.259647
0.167353 0.236295 0.238098
0.044786 0.330705 -0.097776
0.176528 0.355118 -0.102014
0.183371 0.311392 0.019284
-0.184484 0.087992 0.257531
-0.133386 0.266156 -0.087298
0.184484 -0.175861 -0.254448
0.175740 -0.333374 -0.231188
0.170752 -0.282167 0.237171
-0.182204 0.293632 -0.087298
0.178142 0.190606 -0.259421
-0.185406 -0.156121 -0.238509
-0.163162 0.325351 -0.151333
-0.120801 0.290862 -0.086989
-0.173957 0.181622 -0.238098
-0.173973 0.333726 0.001249
-0.170446 -0.314370 0.226082
-0.173855 -0.326571 0.260348
-0.179908 0.280856 0.238098
-0.184484 -0.065613 -0.109173
0.184663 0.338578 -0.196191
0.185411 0.211895 0.257877
-0.169096 -0.369220 0.268994
0.178998 0.202343 -0.237171
-0.084010 0.306432 -0.087298
0.163162 -0.239329 -0.257203
0.163765 -0.333374 -0.152507
0.170135 0.049959 -0.110474
-0.028489 0.324120 -0.087298
0.178603 0.333641 -0.026839
0.055227 0.358488 0.128725
0.185337 -0.208493 -0.238123
0.162234 0.193398 0.249499
-0.198202 -0.369220 -0.118951
-0.184027 0.273049 -0.097966
-0.085198 0.302887 -0.087298
0.184484 -0.208898 -0.107361
0.173997 -0.153274 -0.110474
0.164951 0.124313 0.238098
0.184334 -0.067787 0.237212
0.172527 -0.369220 0.258881
-0.170851 -0.110916 0.260348
0.162234 0.331982 0.162222
0.068141 0.331632 -0.106634
0.185231 0.257152 -0.097847
0.179821 0.331215 -0.084825
-0.163162 0.325038 0.005046
-0.118342 0.364052 0.228130
0.165770 -0.002068 -0.087298
-0.042268 0.363357 0.209569
0.184484 0.089693 0.242710
-0.177224 0.258692 0.260348
0.167510 0.339843 -0.237171
-0.184044 -0.314372 0.221161
-0.185411 0.112110 0.252079
-0.176326 -0.035997 -0.238098
-0.180235 -0.300900 -0.234699
-0.165442 0.030292 -0.087932
-0.190973 0.323907 0.218741
-0.165021 0.127543 0.238098
0.169134 -0.337546 0.222897
-0.164960 0.333074 -0.112946
-0.185411 0.060419 0.239424
0.182699 0.316490 -0.118594
0.162234 0.124485 0.256943
0.183012 -0.315297 0.026331
0.163162 0.246440 -0.259126
-0.162937 0.025005 -0.237354
0.169012 -0.353531 -0.234699
0.162234 0.285852 0.246643
0.165342 0.312319 -0.063654
0.165418 0.187129 -0.237171
-0.171448 0.167296 -0.259421
0.169981 -0.329719 -0.112946
-0.061845 0.337169 -0.110474
-0.185411 -0.324140 -0.069676
-0.115986 0.362896 0.185608
0.176754 -0.145326 -0.260062
0.006681 0.365351 0.141759
-0.170695 0.119765 0.238098
0.176012 0.351719 -0.270478
0.178270 -0.310198 -0.132189
-0.025809 0.357593 0.210395
-0.164020 -0.321218 -0.087298
-0.170970 0.124996 -0.260348
-0.163162 -0.332288 0.177125
0.183197 0.311392 0.213481
0.174002 0.334568 0.168297
0.090819 0.354453 0.138917
-0.163035 -0.313307 -0.112946
0.185411 -0.100889 -0.247879
0.172456 0.342849 0.265910
-0.169185 -0.006816 -0.088225
0.055526 0.368547 0.138905
0.178541 -0.246723 0.260348
-0.164114 -0.072011 -0.109547
0.181360 -0.119255 0.259421
0.162234 -0.332262 0.151632
-0.177514 0.299616 0.260387
0.097607 0.327615 -0.087140
0.181957 -0.249363 -0.109547
0.167685 0.003563 -0.109547
0.162234 -0.180073 -0.108913
-0.174832 -0.366130 -0.234619
-0.163162 0.319407 -0.230114
0.094004 0.365075 0.229204
0.177969 -0.302490 -0.086361
-0.037790 0.360337 0.215749
-0.162234 0.313595 0.150777
-0.174985 0.296290 -0.250104
-0.184737 -0.199878 -0.252101
0.184484 -0.315327 -0.061807
-0.163519 -0.332447 -0.208284
-0.185411 0.330037 0.054951
0.184484 -0.318672 -0.251299
0.185411 0.187674 -0.239830
0.163162 0.203794 -0.238402
-0.149755 0.277692 -0.086989
-0.162234 -0.169298 -0.088943
0.163162 0.073226 -0.088641
-0.163162 -0.319806 0.017378
0.185411 -0.323230 -0.119388
-0.166994 0.212163 0.238098
-0.079765 0.359193 0.163598
-0.027483 0.359031 0.166760
-0.163162 0.329296 -0.230782
-0.169084 -0.304150 0.229879
0.064204 0.354809 0.139680
0.180138 0.250354 -0.260348
0.184484 0.321396 -0.198216
0.180719 -0.314370 0.017937
0.164906 0.334568 -0.071134
-0.170875 0.184769 -0.109547
-0.162560 0.330805 0.035762
-0.083110 0.269654 -0.087298
-0.180380 0.178692 -0.088225
-0.062657 0.297494 -0.087298
0.163162 -0.070957 0.253851
-0.054274 0.354284 0.133072
0.040358 0.324580 -0.087298
0.182086 -0.271147 -0.237171
-0.165227 0.102981 0.260348
-0.162234 0.172651 -0.247574
0.073896 0.337193 -0.088225
-0.162234 -0.318795 0.179902
-0.184484 0.327391 0.218416
-0.170046 0.189670 -0.109547
-0.122326 0.331632 -0.106447
-0.184484 0.297658 0.250357
0.022430 0.356805 0.217433
-0.163162 -0.125025 -0.090644
0.162234 0.083866 -0.106048
-0.184484 0.212961 -0.093444
-0.068300 0.356692 0.232706
0.171452 0.009650 -0.109590
-0.114020 0.277085 -0.087298
0.169182 0.297166 -0.114570
0.162234 -0.335296 -0.076910
0.185411 0.081223 -0.093074
-0.165782 -0.213172 -0.238098
-0.173114 0.312319 0.217361
-0.184252 0.067919 -0.259421
0.184484 0.305376 -0.093254
-0.179060 -0.337546 0.152531
-0.008301 0.331632 -0.103521
-0.111784 0.365785 0.154863
-0.166672 -0.202812 -0.259421
0.184484 -0.322325 -0.051896
-0.166288 -0.238306 -0.087298
0.180990 0.333641 0.160499
0.163162 -0.330462 -0.257091
0.180204 -0.315297 0.076502
0.158835 0.325923 0.217530
-0.162234 -0.075442 0.245143
0.184484 0.047959 -0.241946
0.145773 0.308643 -0.087298
0.167884 0.230270 -0.087298
-0.169551 -0.008942 -0.110474
-0.157457 0.335168 0.137101
0.144679 0.331361 -0.110259
0.175640 -0.158742 0.237171
-0.163505 0.137220 -0.109547
0.032201 0.361220 0.222412
-0.163503 -0.313401 -0.237171
0.128991 0.355717 0.128478
0.177656 -0.119948 -0.237171
-0.166157 -0.347593 0.238098
-0.154062 0.282189 -0.098319
-0.164418 0.088504 0.238098
0.163162 -0.344585 -0.256532
0.132861 0.344029 -0.087298
0.027498 0.359051 0.163949
0.163490 0.312319 0.078793
0.184941 -0.343987 -0.252028
0.172235 0.091282 -0.088225
0.163162 0.061280 -0.257021
0.183190 -0.259592 -0.109547
0.162234 -0.198018 -0.256508
-0.184484 0.343769 -0.240806
-0.149696 0.341498 -0.097481
-0.159370 0.322756 0.235901
-0.163162 -0.318490 0.073637
0.162234 -0.158399 -0.090827
-0.175715 0.315563 -0.146742
0.183854 -0.158715 -0.087298
-0.170015 -0.106799 0.260348
-0.185411 0.026798 -0.092924
-0.162234 0.265297 -0.109297
0.176588 0.350339 0.231912
0.099152 0.307762 -0.087298
-0.163162 -0.318486 0.103337
0.184484 0.344162 0.245862
0.176896 -0.301886 0.226967
0.020821 0.357910 0.229219
-0.124950 0.358009 0.142541
0.185411 0.328820 -0.106297
-0.060525 0.284529 -0.086989
-0.107366 0.364557 0.226357
-0.165519 0.334568 0.021981
0.182355 0.335057 -0.260348
-0.183744 -0.315297 0.058599
-0.185032 0.328903 0.160034
-0.163162 0.327656 0.244407
0.166743 0.337813 -0.219487
0.179601 0.308619 -0.237171
0.103213 0.297169 -0.087298
0.171855 0.294241 -0.230301
-0.068760 0.352955 -0.090988
-0.185411 0.328058 -0.239138
-0.043985 0.364481 0.129392
0.170586 0.319750 -0.084825
0.184484 0.132614 -0.102760
-0.182970 0.163021 -0.237171
0.163162 0.348451 0.255615
-0.173848 0.139894 0.260348
0.182804 0.266467 -0.238098
0.181533 -0.336619 -0.084212
-0.170760 0.248276 -0.088225
0.120205 0.334401 -0.088225
0.162234 0.201958 -0.256085
-0.180327 0.316459 0.259421
-0.165282 0.244999 -0.109547
0.163162 0.348074 -0.255713
-0.171332 -0.327345 -0.088225
0.185411 -0.147199 0.257707
-0.162234 0.282345 0.240407
0.109307 0.365361 0.188045
0.185411 -0.057275 -0.095925
0.176764 0.119451 0.237171
-0.184484 0.089682 -0.256388
0.170393 -0.302672 -0.259463
-0.185029 -0.321170 -0.028208
-0.163162 0.314147 0.036255
-0.162234 -0.074198 -0.106630
0.179164 0.128442 -0.109547
-0.170651 0.092996 0.238098
-0.184484 0.100380 -0.107868
-0.185411 0.322734 -0.184452
-0.175514 -0.315297 -0.034530
0.163162 0.111944 -0.102443
0.169839 -0.290529 -0.110474
-0.185411 0.169548 0.242006
-0.162234 -0.143927 -0.095629
0.162329 -0.340681 -0.088189
0.175465 -0.353758 0.229879
0.112289 0.365581 0.130924
0.162234 0.123576 -0.252989
-0.184484 -0.350304 -0.248112
0.170919 -0.344225 0.233590
0.180314 -0.369220 -0.243625
0.185411 0.034043 -0.248917
0.192128 -0.369220 -0.255363
0.016450 0.369150 0.136644
0.195469 -0.367796 0.232953
-0.184484 -0.262014 0.243214
0.182443 0.132102 -0.238098
0.182785 0.312319 0.025989
-0.163162 -0.100624 -0.241097
-0.147356 0.352955 -0.107530
-0.184484 0.137463 -0.103615
-0.174841 0.291856 0.260348
0.171372 0.057976 0.260348
0.150095 0.271391 -0.095486
-0.085624 0.306345 -0.086989
0.162234 -0.256379 -0.092981
0.175677 0.312319 0.222276
0.184484 0.239576 0.239024
-0.174844 0.092923 -0.087298
0.013210 0.360101 0.128220
0.060313 0.352955 -0.105769
-0.177985 -0.320476 0.238098
0.162857 -0.317330 -0.012613
-0.150464 0.279361 -0.097386
0.182177 0.073402 -0.110474
-0.163768 0.272382 -0.259421
0.019841 0.364231 0.223393
0.172010 -0.229728 0.259421
0.175678 0.216239 -0.110474
-0.178553 -0.305182 -0.233772
-0.175576 -0.034407 0.259421
0.184484 -0.322132 0.047622
-0.179399 -0.244166 -0.088225
0.184484 -0.291498 -0.096425
-0.184700 -0.193697 -0.110295
-0.163162 0.015401 0.253386
-0.162572 0.334084 -0.058472
0.184683 -0.083146 0.237342
0.173331 0.353882 -0.254866
0.180976 0.315563 -0.215815
-0.184484 -0.209231 -0.096560
-0.151665 0.343588 -0.109547
0.181541 0.334568 0.212189
0.163162 0.109037 -0.254146
0.185411 -0.081840 -0.243569
0.151429 0.287501 -0.087298
-0.184484 -0.242519 -0.244389
-0.165288 0.036332 -0.259421
-0.184484 -0.328638 -0.174719
-0.163162 -0.314867 -0.141165
-0.179042 -0.152347 -0.088225
0.167165 0.033736 0.238098
0.173464 -0.315297 0.030571
-0.162234 -0.022362 -0.091704
0.172483 0.214568 0.259421
0.184484 -0.206300 -0.093918
0.185411 -0.300104 -0.243383
-0.175513 0.011233 -0.088225
0.156162 0.320839 0.154778
-0.185411 -0.237680 -0.106400
0.182560 -0.333374 -0.115963
0.152473 0.324611 0.149053
-0.181030 0.351719 0.259767
-0.162623 -0.237731 0.259914
-0.169058 -0.274010 -0.259421
-0.170559 -0.344535 -0.110474
0.107479 0.300569 -0.086989
0.176356 0.347999 0.230907
0.185411 -0.148187 0.255031
0.163162 -0.093468 0.238523
-0.185411 0.272071 -0.088807
-0.162694 -0.213441 -0.259985
-0.162234 0.332467 0.053899
0.169999 -0.201845 0.260348
-0.190973 0.320428 0.150508
0.184484 -0.336397 0.061825
-0.168646 0.017050 0.237171
0.185411 -0.122300 -0.258354
0.162970 0.087910 0.246235
0.165365 -0.219291 -0.109547
-0.162278 -0.330046 0.199345
0.106548 0.359996 0.210580
0.170706 -0.357582 0.259421
-0.163162 -0.291934 -0.090654
0.162625 -0.252966 -0.087730
0.163162 0.286326 -0.255628
0.162234 -0.330713 0.175368
0.163162 -0.332951 0.238959
0.162234 -0.320708 0.109707
0.184484 -0.085479 -0.108589
0.183066 0.323039 0.210292
0.180996 -0.273191 -0.260348
0.184484 -0.113531 0.242221
0.185215 -0.320870 0.004223
-0.185411 0.075321 -0.089164
0.174806 0.073145 -0.110474
-0.163162 -0.299191 -0.247583
0.162234 0.143444 -0.249656
-0.168244 -0.295079 0.260348
0.185411 0.294148 -0.104778
-0.185867 0.322885 0.158939
0.185393 0.312573 0.140979
-0.083535 0.330705 -0.087981
0.185411 -0.365305 -0.091765
0.159762 0.349113 -0.103124
0.185411 0.252905 -0.248132
0.180758 0.188627 -0.110474
0.156941 0.282351 -0.098120
0.164848 -0.297037 0.259421
0.159762 0.312093 0.151807
-0.186196 -0.368723 -0.271936
-0.173789 -0.030251 -0.087298
0.095265 0.289037 -0.087298
0.163731 -0.346012 -0.238098
-0.162234 0.008312 -0.248369
0.185411 0.210222 -0.099948
-0.184039 0.193893 -0.110472
0.163162 0.053373 0.247596
-0.184484 -0.320551 0.027506
-0.184484 -0.330692 -0.170664
0.185411 0.315122 -0.107681
0.169337 0.080397 0.260348
0.164334 0.315563 -0.227571
0.185411 -0.334155 -0.024158
0.159762 0.321255 0.140490
0.169973 -0.353512 -0.113873
-0.162234 0.324968 0.145802
-0.185411 0.328524 -0.020995
0.173437 0.315563 -0.187638
0.164482 -0.002276 0.238098
-0.166137 0.255196 -0.260348
0.177436 -0.300979 -0.263109
-0.184484 -0.244429 -0.256945
0.185411 -0.161267 -0.099044
-0.081708 0.267123 -0.088225
-0.184609 0.051030 -0.110337
-0.163162 0.327679 0.134053
-0.022749 0.360161 0.236350
0.162234 -0.315064 -0.247385
-0.171480 0.200899 0.259421
-0.175058 -0.167695 -0.088049
-0.163571 0.085428 0.259421
-0.184484 0.352615 0.257521
-0.179460 -0.226914 -0.238098
0.170358 0.298931 -0.120434
0.134873 0.292134 -0.086989
0.162234 -0.318066 -0.018111
-0.185411 0.047922 0.252194
0.168419 0.134075 -0.259421
-0.184484 -0.061523 0.258325
-0.185411 0.056746 -0.254918
-0.170278 0.030288 -0.110474
0.184484 0.206877 -0.247969
0.178946 -0.324568 -0.237171
-0.169765 0.245979 0.259421
-0.185411 -0.178009 -0.090902
-0.170903 0.001034 -0.237171
0.155141 0.281025 -0.087298
0.180916 0.333641 0.199789
0.133716 0.355850 0.232414
0.178997 -0.266492 -0.088225
0.163162 -0.301766 0.244254
-0.165703 0.226937 0.238098
-0.184484 0.036768 -0.249451
0.163162 -0.175510 0.238596
-0.170279 0.346563 0.229967
0.160461 0.336355 -0.101347
0.185411 0.338391 0.244294
0.164108 -0.018224 -0.260348
-0.184220 -0.124414 -0.238098
0.177089 -0.347820 -0.259916
0.162741 -0.320573 0.172372
0.185411 0.136064 -0.091754
0.165072 -0.121934 0.259421
-0.184484 -0.061266 -0.258575
-0.185411 0.154686 0.238561
0.184484 -0.329495 -0.242903
0.184484 -0.317301 0.053139
0.163162 0.314253 -0.005885
0.163079 -0.244905 0.237288
0.178095 0.207636 -0.109547
-0.177377 0.333641 -0.069868
0.163162 -0.321683 -0.080116
0.177013 -0.336619 0.116646
0.163162 -0.149876 -0.096205
-0.184484 -0.305173 -0.243736
-0.182144 -0.129275 0.260348
-0.182804 0.204264 -0.110474
0.163404 -0.000615 -0.238098
0.184484 0.002235 -0.254907
-0.026550 0.284143 -0.087298
0.182549 0.059553 -0.237487
0.178843 0.315563 -0.127557
-0.182904 -0.336619 -0.030495
-0.163162 -0.330888 0.002243
-0.185411 -0.357123 0.257760
-0.185411 -0.000040 0.254420
-0.166089 -0.148822 -0.088225
-0.178612 0.182836 -0.238098
-0.171781 0.311392 0.070857
0.159762 0.295673 -0.107992
-0.168086 0.330430 -0.260348
0.179641 -0.309609 -0.112946
0.182658 0.214938 -0.087678
0.103171 0.282550 -0.087298
0.163162 -0.236948 -0.256748
0.163162 0.332586 -0.104775
-0.175774 0.157070 -0.237712
0.162598 -0.342511 -0.237629
0.184484 0.061085 -0.109317
0.177961 -0.311125 -0.122418
0.162234 0.117232 -0.239356
0.044237 0.336090 -0.087298
-0.169397 0.194528 -0.237171
0.184484 0.143982 -0.088798
0.134532 0.271627 -0.086989
0.169104 0.332274 -0.084825
0.163162 -0.329714 -0.145814
-0.163162 0.346690 -0.091338
-0.182087 -0.086712 -0.110474
0.162234 -0.081886 -0.256393
-0.052121 0.364722 0.200095
-0.185411 -0.333813 0.148289
-0.168018 0.054837 -0.087298
0.092251 0.352955 -0.094162
-0.185411 0.068990 0.254356
-0.184484 0.193070 0.246589
-0.182388 -0.237227 -0.237171
0.184000 0.038147 0.238098
-0.180841 0.044312 0.260348
-0.168243 0.068078 -0.087298
0.167815 -0.214055 -0.260348
0.162234 -0.300029 0.248918
0.178887 -0.336619 0.203525
-0.184700 -0.325788 -0.237351
-0.179082 0.300670 0.261275
0.185411 0.018995 -0.096502
0.163752 0.221514 -0.260348
-0.184484 -0.244288 -0.105549
0.184484 -0.289344 -0.249773
0.180439 -0.315297 -0.035355
-0.167347 0.312319 -0.000754
0.162234 0.098518 0.248797
-0.180906 -0.242678 -0.087298
0.092794 0.295610 -0.086989
0.178605 0.311392 -0.014915
0.098888 0.367595 0.131104
-0.170100 -0.066691 -0.238098
0.174158 -0.344992 -0.123638
-0.174939 -0.327210 -0.109547
0.008586 0.284823 -0.087298
0.168838 -0.333374 -0.220296
-0.185411 0.150612 0.240623
-0.185411 -0.165720 -0.095394
-0.146010 0.325941 0.134644
0.173345 -0.366130 -0.235627
0.173563 -0.315297 0.011555
-0.184484 0.317672 -0.211151
0.046525 0.362417 0.143458
-0.176251 -0.337546 0.088387
-0.178399 0.334568 -0.010647
-0.165415 0.333641 0.166505
0.182778 0.322922 -0.260348
0.047077 0.362095 0.204100
0.168276 0.001940 -0.110474
0.066002 0.357216 0.186714
0.169720 -0.023918 -0.087750
0.163162 0.001942 -0.258350
0.163162 -0.320052 0.141263
-0.113949 0.358468 0.128853
0.107307 0.357221 0.232176
-0.170274 -0.314370 0.090814
-0.031473 0.359889 0.226941
